# .PCD v0.7 - Point Cloud Data file format
VERSION 0.7
FIELDS x y z noise intensity gray
SIZE 4 4 4 4 2 1
TYPE F F F F U U
COUNT 1 1 1 1 1 1
WIDTH 921
HEIGHT 1
VIEWPOINT 0 0 0 1 0 0 0
POINTS 921
DATA ascii
nan nan nan 0 95 23
nan nan nan 0 103 24
-0.091059811 0.034180116 0.43593815 0.0064237528 103 24
-0.087389074 0.033543121 0.42791367 0.0058919904 114 27
-0.084747434 0.033280827 0.42465609 0.0049454244 119 28
-0.082663707 0.033230398 0.42409107 0.0053591253 125 30
-0.080448978 0.033123586 0.42279667 0.0051308661 118 28
-0.078461625 0.033107422 0.42264995 0.0055633085 128 31
-0.076141052 0.03294624 0.42064315 0.0046395953 132 32
-0.074202292 0.032946169 0.4206852 0.0046902169 145 35
-0.072378874 0.032998677 0.42139107 0.0040749009 170 41
-0.070860237 0.03319687 0.42395043 0.0039504445 176 42
-0.068653949 0.033075012 0.42241597 0.0036818509 206 49
-0.06686043 0.033150699 0.42339817 0.0030198246 229 55
-0.064990692 0.033192012 0.42393568 0.0033536514 230 55
-0.063043393 0.033195045 0.42397887 0.0033909485 234 56
-0.060468774 0.032857399 0.41966578 0.0028887631 245 59
-0.05857772 0.032881152 0.4199641 0.0027001763 268 65
-0.056724984 0.032928769 0.42056325 0.0031358898 251 60
-0.055040523 0.033080895 0.42249337 0.0032721588 211 51
-0.0530385 0.033046313 0.42203549 0.0032804599 206 49
-0.051002465 0.032987103 0.42126018 0.0034121177 201 48
-0.049041446 0.032973643 0.42106658 0.0034690553 199 48
-0.047298033 0.033111412 0.42280188 0.0035438081 191 46
-0.045879725 0.033498392 0.427717 0.0038664243 184 44
-0.043801591 0.033416718 0.42664656 0.0036131709 215 52
-0.04202202 0.03356586 0.42852157 0.0038354199 166 40
-0.040423285 0.033881281 0.43251809 0.0038368087 171 41
-0.038175836 0.033657487 0.42963052 0.0037402653 178 43
-0.03644862 0.033892959 0.43260506 0.0042618001 153 37
-0.03432041 0.033761237 0.43089262 0.0038626892 173 41
-0.032493681 0.033928115 0.43299127 0.0042324117 166 40
-0.030871747 0.034344677 0.43827641 0.0039088675 163 39
-0.028177483 0.033543069 0.42801747 0.0040391637 163 39
-0.026242284 0.033592373 0.42861798 0.0039589084 163 39
-0.024439963 0.033833664 0.43166897 0.0040458902 161 39
-0.022531569 0.03395788 0.43322742 0.0041926 151 36
-0.020748137 0.034312926 0.43773198 0.0045671123 157 38
-0.018559005 0.034001265 0.43373299 0.0040683271 158 38
-0.016517529 0.033917487 0.4326432 0.0043446422 143 34
-0.014520908 0.033915445 0.43259805 0.0052346201 141 34
-0.012576162 0.034053214 0.43433845 0.0047812047 142 34
-0.010559676 0.034012139 0.43379989 0.0044281492 145 35
-0.0085205082 0.033861704 0.431869 0.0042336187 151 36
-0.0064346325 0.033377171 0.42567974 0.0042399848 153 37
-0.0044615343 0.033308897 0.42480186 0.0041497494 154 37
-0.0025254285 0.033626199 0.428844 0.0045682071 162 39
-0.00054339541 0.033415485 0.4261547 0.0039152084 169 41
0.0014168551 0.033275571 0.42437088 0.0040586297 172 41
0.0033709793 0.033237599 0.42388985 0.003439385 197 47
0.0053503793 0.033385228 0.42577821 0.0042982786 173 41
0.0073019816 0.033326689 0.42503992 0.0034306664 199 48
0.0091850171 0.033046249 0.4214738 0.0034256496 199 48
0.011127141 0.033039249 0.42139745 0.0035048914 190 46
0.013055658 0.032999933 0.42091122 0.0035467134 186 45
0.014990319 0.03298432 0.4207294 0.0035768766 180 43
0.016871918 0.032868918 0.41927683 0.0039322516 161 39
0.018856695 0.03295758 0.42042917 0.0043527209 152 36
0.020799251 0.032962803 0.42051893 0.0040863007 149 36
0.022644119 0.032825511 0.41879216 0.0045318194 134 32
0.024672382 0.032954767 0.42046747 0.0045296266 140 33
0.026699193 0.033063386 0.42188087 0.0051711495 135 32
0.028644852 0.033063583 0.42191204 0.0046676653 130 31
0.030664569 0.0331438 0.42296523 0.0046817143 129 31
0.032759476 0.033290837 0.42487192 0.005088455 130 31
0.034627441 0.033203661 0.42379001 0.0047798776 124 30
0.036343593 0.032988012 0.42106795 0.0047836341 127 30
0.038122602 0.032848381 0.4193159 0.0055525028 120 29
0.040024798 0.032823253 0.41902491 0.0051003899 116 28
0.042077374 0.032918081 0.42026454 0.0053949058 109 26
0.045327537 0.033900235 0.43283248 0.0053547216 116 28
nan nan nan 0 115 27
0.056452643 0.038805231 0.49551964 0.0054363972 114 27
0.05843604 0.038607072 0.493016 0.0051724915 121 29
0.060255919 0.038319737 0.48937064 0.0059926761 119 28
0.060671229 0.037192125 0.47499037 0.0051307338 123 29
0.060275726 0.035663292 0.45548105 0.0048232749 132 32
0.061682846 0.035267998 0.45044449 0.0053598075 130 31
0.062329046 0.034477539 0.44035643 0.0050792904 122 29
0.061837617 0.033127461 0.42311591 0.0047032051 133 32
0.062808 0.032619081 0.41662109 0.0054698363 124 30
0.063475527 0.031988233 0.40855718 0.0053414642 124 30
0.064002492 0.031324927 0.40007374 0.0047986056 134 32
0.065070115 0.030955959 0.39534429 0.0049674045 126 30
0.065816581 0.030458463 0.3889679 0.0046572201 134 32
0.067358755 0.03034582 0.38750049 0.0045731198 137 33
0.069210082 0.030374672 0.38783327 0.0045973957 148 35
0.070789561 0.03028577 0.38665548 0.0043662451 145 35
0.071264252 0.029740177 0.37964061 0.0042433422 151 36
0.072620876 0.029579967 0.37753868 0.0043929932 144 34
0.07384529 0.029374667 0.37485376 0.0046730777 150 36
0.075215258 0.029235328 0.3730028 0.0044982764 156 37
0.076940134 0.029237095 0.3729434 0.004349214 158 38
0.078429982 0.029151421 0.37175953 0.004113452 159 38
0.079757564 0.029010391 0.36986062 0.0043301918 166 40
0.080975458 0.028836215 0.3675299 0.0038319365 171 41
0.08238209 0.028735017 0.36611983 0.0037988923 174 42
0.08386527 0.028664054 0.36508462 0.0038694828 178 43
0.085022651 0.028486731 0.36268446 0.0038162321 180 43
0.086146921 0.028305385 0.360223 0.0040409933 171 41
0.086459585 0.027869305 0.35451093 0.0035557083 196 47
0.087579452 0.027704809 0.3522445 0.0036351758 182 44
0.089381441 0.027758164 0.35273558 0.0038392094 193 46
0.09083569 0.02770355 0.35184118 0.0036913168 199 48
0.092199996 0.027623909 0.35061601 0.0034138151 199 48
0.093339942 0.027480975 0.34857494 0.0037349509 195 47
0.094646916 0.027391251 0.34719598 0.0033418895 205 49
0.095533401 0.027184874 0.34432587 0.0031019782 226 54
0.097317606 0.027236544 0.34470999 0.003219872 210 50
0.098021023 0.026988957 0.34129271 0.0035501954 217 52
0.098752409 0.02675684 0.33805987 0.0034501206 222 53
0.099881865 0.026638174 0.33624759 0.0035001147 227 55
0.10154419 0.026663093 0.33623171 0.0032702242 242 58
0.10292371 0.026614128 0.33526683 0.0030130525 238 57
0.10389566 0.026462816 0.33299729 0.0028349264 245 59
0.10494728 0.026335971 0.33102113 0.0028694246 246 59
0.1061358 0.026246665 0.32950121 0.0028834562 250 60
0.10715467 0.026118573 0.32747859 0.0030776286 253 61
0.10817753 0.025995057 0.3254981 0.0027017884 271 65
0.10984327 0.026027322 0.32544988 0.0028002595 277 67
0.1114566 0.026046453 0.32521647 0.002770171 287 69
0.11253157 0.025940958 0.32340816 0.0029033707 282 68
0.11309176 0.025721205 0.32016104 0.002554659 289 70
0.11416516 0.025622437 0.3184056 0.0027806372 267 64
0.11514945 0.025506509 0.31642047 0.0026005518 288 69
0.11618318 0.025404375 0.31459039 0.0025380806 293 71
0.11767187 0.025403051 0.31399018 0.0026332245 279 67
0.11788981 0.025130868 0.31002772 0.0024991701 299 72
0.11874247 0.024999062 0.30778641 0.0026703991 288 69
0.11666515 0.024261175 0.29808497 0.0026782302 311 75
0.11690288 0.024016734 0.29445237 0.0022001693 364 88
0.11812148 0.023977237 0.29332158 0.0022802297 344 83
0.11943823 0.023958363 0.29242694 0.0024911 334 81
0.12050985 0.023891328 0.29093027 0.0022080687 358 86
0.12210382 0.023928203 0.29068422 0.0022219173 358 86
0.12365466 0.023955883 0.29031032 0.0024202652 353 85
0.12573747 0.02408484 0.2911464 0.0022260053 371 90
0.12581992 0.023832019 0.28736067 0.0023534554 364 88
0.12771946 0.023925168 0.28774291 0.0024710011 344 83
0.12939955 0.023975622 0.2876015 0.0023354674 329 79
0.13146563 0.024095731 0.28828743 0.0025079821 300 72
0.13339728 0.024188904 0.28864497 0.0025458531 288 69
0.13526565 0.024268756 0.28884238 0.0026814241 274 66
0.13746522 0.024405738 0.28972149 0.002885242 248 60
0.1389741 0.024418533 0.28913465 0.0033069169 234 56
0.14290121 0.024851616 0.29352891 0.0027227853 267 64
0.14445953 0.024868147 0.29301295 0.0018432115 483 117
0.14436539 0.02460273 0.28921005 0.0012937416 830 201
0.14551747 0.024552859 0.28798282 0.0010506911 1187 255
0.14781405 0.024695178 0.28904578 0.00096953829 1334 255
0.15051468 0.024901574 0.290894 0.0010522635 1189 255
0.15297505 0.025064625 0.29227626 0.00115439 1046 253
0.15505607 0.025162999 0.29295212 0.0012518943 931 225
-0.17635031 0.026830416 0.29487127 0.0057486212 118 28
-0.17550589 0.026929626 0.29557574 0.0048830803 124 30
-0.17513716 0.027104162 0.29715955 0.0056343745 130 31
-0.17428209 0.027205804 0.29799974 0.0049691005 142 34
-0.17260145 0.027179228 0.29749578 0.0049166279 138 33
-0.17014672 0.027029214 0.29570484 0.0046411688 152 36
-0.16803817 0.026932009 0.29455712 0.0039965641 163 39
-0.16647679 0.02692154 0.29442394 0.0041601988 163 39
-0.16572765 0.027043423 0.29580477 0.0040126322 159 38
-0.16472168 0.027125243 0.29681513 0.0034538829 190 46
-0.16451538 0.027341476 0.29936531 0.0033373998 210 50
-0.16344044 0.027416032 0.30043349 0.003309116 203 49
-0.16410649 0.027786778 0.30481821 0.0035695361 196 47
-0.17087255 0.029207243 0.3208068 0.0037702306 178 43
-0.175742 0.030327657 0.33360252 0.0044160555 154 37
-0.17068705 0.029740533 0.32768643 0.0044710911 170 41
-0.16733715 0.029441925 0.32499036 0.0037444488 187 45
-0.16591828 0.029480528 0.32606402 0.0034791082 194 47
-0.1630725 0.029263834 0.32435703 0.0031893284 214 51
-0.16164607 0.029300055 0.32549042 0.0037990212 199 48
-0.16138645 0.029550655 0.3290484 0.0031545998 223 54
-0.1591159 0.029434413 0.32855508 0.0035113676 223 54
-0.1579372 0.029519835 0.33033615 0.0032836373 227 55
-0.15674873 0.029605197 0.33214006 0.0031630627 215 52
-0.15584475 0.02974668 0.33459345 0.0030918221 223 54
-0.15454452 0.029814746 0.33623558 0.0033431931 229 55
-0.15319458 0.029874593 0.33779255 0.0031354933 226 54
-0.15200999 0.029968357 0.33973706 0.0030744334 231 56
-0.15098603 0.030096212 0.34207019 0.0031020388 220 53
-0.14905256 0.030043604 0.34234679 0.0030722991 252 61
-0.14797986 0.030165272 0.34460053 0.0031388653 226 54
-0.14721487 0.030353179 0.34760651 0.0031814107 232 56
-0.14611624 0.030475847 0.34985849 0.0030818195 225 54
-0.1446034 0.030513987 0.35112712 0.0034847453 227 55
-0.14254238 0.030435983 0.35103911 0.0033055258 227 55
-0.14076352 0.030417077 0.35160995 0.0031929133 216 52
-0.14014268 0.030650984 0.35508728 0.003511844 217 52
-0.13903928 0.030783812 0.35738054 0.0032984584 202 49
-0.13723381 0.030762563 0.35786501 0.003269264 212 51
-0.13589807 0.03084741 0.35956174 0.0036679399 209 50
-0.13483992 0.030998236 0.36200926 0.0033478993 205 49
-0.13338791 0.031061249 0.36341211 0.0032736689 210 50
-0.13153692 0.031031786 0.36370978 0.0036527212 197 47
-0.12984535 0.031039653 0.36442074 0.0037881611 206 49
-0.128858 0.031218344 0.36711708 0.0035431101 194 47
-0.12773676 0.03136903 0.36946663 0.0034000955 199 48
-0.12595922 0.031360488 0.36992005 0.0035936488 185 44
-0.12449746 0.031431422 0.37128899 0.0044418443 173 41
-0.12364273 0.031659815 0.37450004 0.0037198842 174 42
-0.12227836 0.031762425 0.37620592 0.0041286438 183 44
-0.12110253 0.031917728 0.37851778 0.0039588213 172 41
-0.11964552 0.032002438 0.3799741 0.004213633 171 41
-0.11830714 0.032121912 0.38182482 0.0043270248 153 37
-0.11716332 0.032298684 0.38433951 0.0040889927 153 37
-0.11565708 0.032379493 0.38569501 0.0041032247 154 37
-0.11478627 0.03264356 0.38921738 0.004212263 148 35
-0.11370903 0.032856464 0.39211562 0.0046456349 143 34
-0.11258294 0.033061966 0.39491063 0.0041741775 158 38
-0.11197072 0.0334277 0.39960656 0.0042580352 149 36
-0.10968362 0.03329733 0.39835575 0.0050805453 139 33
-0.10852545 0.033511069 0.40120462 0.0045718187 140 33
-0.10752248 0.033781037 0.40471342 0.0045186258 139 33
-0.10907536 0.034877852 0.41812184 0.0052750255 130 31
-0.11009848 0.035841893 0.42993706 0.0055375602 129 31
nan nan nan 0 133 32
nan nan nan 0 134 32
nan nan nan 0 126 30
-0.12206609 0.042837776 0.51489532 0.0055059888 137 33
-0.12133067 0.043426603 0.52219057 0.0056407494 138 33
-0.12219428 0.044623263 0.53678662 0.0055637602 134 32
nan nan nan 0 142 34
-0.11621413 0.044234794 0.53247392 0.0053685498 128 31
-0.11366159 0.0441981 0.53218919 0.0056964336 123 29
-0.11136638 0.044262063 0.53310192 0.0055498965 114 27
nan nan nan 0 104 25
nan nan nan 0 103 24
nan nan nan 0 102 24
-0.080732122 0.035196062 0.42425674 0.0056275954 113 27
-0.078660473 0.03514434 0.42369622 0.0050250376 124 30
-0.076267362 0.034942709 0.42131943 0.00491251 125 30
-0.074359491 0.034958668 0.42155784 0.0052505573 127 30
-0.072969317 0.035225388 0.42481282 0.004608938 130 31
-0.071384311 0.035410181 0.42707306 0.0047823377 129 31
-0.070058316 0.035737567 0.43104675 0.0046373769 137 33
-0.067550771 0.035463758 0.42776266 0.0053333929 129 31
-0.065278001 0.035300437 0.42580533 0.0049702716 136 32
-0.06343206 0.035364974 0.42659101 0.0048753256 135 32
-0.061329909 0.035286222 0.42564315 0.0046102647 145 35
-0.059433997 0.035324849 0.42610654 0.0043041245 159 38
-0.057080906 0.035085108 0.42320797 0.0037457519 173 41
-0.055183165 0.035118192 0.42359656 0.0038758602 181 43
-0.053127371 0.035049431 0.4227533 0.0033645232 195 47
-0.051096939 0.034992803 0.4220534 0.0037688278 201 48
-0.048944056 0.034844518 0.42024547 0.0031367878 215 52
-0.047014557 0.034849603 0.42028505 0.0028181111 246 59
-0.045404248 0.035101883 0.42330369 0.0025001618 300 72
-0.04319324 0.034891572 0.42074215 0.0025843279 308 74
-0.04176487 0.035323422 0.42592266 0.002542238 321 77
-0.039460696 0.035020612 0.42224374 0.0023298573 324 78
-0.037497476 0.035004672 0.42202303 0.0026550847 320 77
-0.035484239 0.034937739 0.42118737 0.0024017366 323 78
-0.033925712 0.035336677 0.42596751 0.0025550488 291 70
-0.031514939 0.034842409 0.41998065 0.0027777574 298 72
-0.029516343 0.03476895 0.41906697 0.0022676671 348 84
-0.027659697 0.034864131 0.42018652 0.002274422 357 86
-0.025801798 0.034971956 0.42145911 0.0023745135 320 77
-0.023964157 0.035127033 0.42330202 0.0025359467 313 75
-0.022088634 0.035249159 0.42474893 0.00276833 249 60
-0.020059386 0.035125874 0.42324018 0.0029127169 248 60
-0.018282911 0.035466354 0.42732084 0.0032615967 198 48
-0.016320068 0.0354839 0.42751229 0.003248086 211 51
-0.01428871 0.03533683 0.42572227 0.003474606 183 44
-0.01232475 0.035336126 0.42569786 0.0036070314 184 44
-0.010362807 0.03534203 0.42575523 0.0035782508 186 45
-0.0084290365 0.035469256 0.42727628 0.0036180117 182 44
-0.0064401017 0.035371158 0.42608532 0.0043593864 169 41
-0.0044172835 0.034919024 0.42063209 0.003820878 164 39
-0.0025001573 0.035248522 0.42459673 0.0041606147 171 41
-0.00054233416 0.035312597 0.42536664 0.0037904824 168 40
0.0014136576 0.03515403 0.42345718 0.0040026014 154 37
0.003369876 0.03518182 0.42379496 0.0043971278 146 35
0.0053401031 0.035281759 0.42500424 0.0042834999 140 33
0.0072967634 0.035262454 0.42477971 0.0045350087 134 32
0.0092072189 0.035075303 0.42253536 0.0045709549 135 32
0.011098498 0.034893263 0.42035478 0.0047320225 131 31
0.01310408 0.035071287 0.4225142 0.0050615864 118 28
0.014995395 0.034936991 0.42091289 0.005045516 114 27
0.016901284 0.034863543 0.42004666 0.0050769942 121 29
0.018948562 0.035066862 0.42251697 0.0047682356 123 29
0.020959212 0.035170794 0.42379162 0.0051371781 126 30
0.022839848 0.03505744 0.42244962 0.0053343908 123 29
0.024850568 0.035145871 0.42354056 0.0055865436 120 29
0.027033912 0.035447773 0.42720544 0.0056148092 121 29
0.028814863 0.035216868 0.42445013 0.0050471467 119 28
0.030737061 0.035176981 0.42399767 0.0048309201 125 30
0.032950412 0.035455156 0.42737955 0.0052499687 117 28
0.03574644 0.036293529 0.43751532 0.0054334332 108 26
nan nan nan 0 109 26
nan nan nan 0 105 25
nan nan nan 0 109 26
0.051880736 0.042975683 0.51820689 0.0053613065 118 28
0.053050671 0.042010929 0.50660521 0.0061041783 123 29
nan nan nan 0 128 31
0.055846326 0.040647279 0.49021649 0.0053272019 128 31
0.05790082 0.04050434 0.48851678 0.0059482004 125 30
0.058529403 0.039411932 0.47536209 0.005554026 125 30
nan nan nan 0 120 29
0.058841642 0.036863327 0.44465184 0.0048294514 127 30
0.05716873 0.034610335 0.41748449 0.005610832 126 30
nan nan nan 0 128 31
0.059226811 0.033595767 0.40525153 0.005163487 125 30
0.061202999 0.03365583 0.40597191 0.0053731813 131 31
0.06193959 0.033050887 0.39866593 0.004714191 132 32
0.06249072 0.032384675 0.390616 0.0048102266 131 31
0.063666537 0.032070424 0.38680634 0.0043454259 139 33
0.06504894 0.031874523 0.38441849 0.0045050136 141 34
0.066147283 0.031553507 0.38051584 0.0048433128 141 34
0.067761369 0.031488735 0.37969711 0.0048606796 153 37
0.069627523 0.031541411 0.38028762 0.0048926398 148 35
0.070650019 0.031218708 0.37634528 0.0048309402 152 36
0.072065465 0.031080948 0.3746253 0.0040368536 163 39
0.073780403 0.031075779 0.3744956 0.0041094618 152 36
0.075094298 0.030905794 0.37237149 0.0039708191 165 40
0.076199725 0.03065953 0.36932045 0.0039722151 167 40
0.077771083 0.030607408 0.36859941 0.0041437731 150 36
0.079336159 0.030555097 0.36786661 0.0038924809 168 40
0.081354067 0.030675732 0.36920536 0.0037084317 177 42
0.082118846 0.030328596 0.36490437 0.0042256368 175 42
0.083290562 0.030142697 0.36253449 0.004020384 191 46
0.084698908 0.030048069 0.36125219 0.003713907 178 43
0.085560083 0.029766742 0.35771531 0.0035511896 188 45
0.086957768 0.029679202 0.35649678 0.0033768904 203 49
0.087648511 0.029358128 0.35246301 0.0034451277 197 47
0.089040548 0.029279392 0.35132799 0.0034238922 200 48
0.090606079 0.029259512 0.35088634 0.0034979144 193 46
0.092184037 0.02924427 0.35048673 0.0035838748 199 48
0.093291 0.02908273 0.34832069 0.003431164 193 46
0.093837716 0.028755018 0.34415364 0.0032542441 210 50
0.095411226 0.02874765 0.34380838 0.0032017613 216 52
0.096933387 0.028725315 0.34326872 0.0031811842 217 52
0.097862735 0.028530871 0.34065852 0.0032750224 238 57
0.098888226 0.028370209 0.3384389 0.0032086193 215 52
0.10006107 0.028256202 0.33676207 0.0034790675 218 52
0.10160267 0.028248243 0.33633322 0.0030901211 228 55
0.10247522 0.028057337 0.33371097 0.0032878246 240 58
0.1036287 0.027947921 0.33204377 0.0029757528 255 61
0.1048931 0.027871212 0.33074924 0.0027993601 258 62
0.10588293 0.027724834 0.32861233 0.0027745722 253 61
0.10699819 0.027615035 0.32689369 0.0030201024 271 65
0.10842465 0.027587513 0.3261317 0.0027741431 262 63
0.11005025 0.02761073 0.32594982 0.0030102809 276 66
0.11118001 0.027510617 0.32429317 0.0026844917 275 66
0.11190811 0.027315173 0.32149765 0.0026164355 298 72
0.11284442 0.027175106 0.31933954 0.0027958343 292 70
0.11401562 0.02709456 0.31786439 0.0025877152 287 69
0.11571471 0.027139921 0.31784627 0.0025936957 290 70
0.11739194 0.027179057 0.31773257 0.0027960516 277 67
0.11649553 0.026628904 0.31072018 0.0029388319 270 65
0.1153319 0.026032239 0.30317 0.0023286706 336 81
0.11438713 0.025499146 0.2963663 0.0023856533 366 88
0.11561351 0.025457168 0.29526487 0.0021478583 373 90
0.11673246 0.025392836 0.293888 0.0023212379 368 89
0.11818553 0.025401853 0.29334331 0.0022990017 335 81
0.11987854 0.025461618 0.29336545 0.0022743505 344 83
0.1211196 0.025425119 0.29226139 0.002512624 344 83
0.12237667 0.025392786 0.29119167 0.0023054702 337 81
0.12431159 0.025500234 0.29170883 0.0023729256 323 78
0.12575473 0.025505519 0.29104194 0.0022858102 343 83
0.12692286 0.025455533 0.28973526 0.0023161052 333 80
0.12785104 0.025359049 0.28789571 0.0023865791 325 78
0.12983274 0.025471361 0.2884208 0.0025768625 322 78
0.13211021 0.025638647 0.28955793 0.0026145966 285 69
0.1341918 0.025764754 0.29022244 0.0025332798 294 71
0.13606425 0.025848469 0.29040828 0.0027099415 275 66
0.13851917 0.026039932 0.29180586 0.0030770719 246 59
0.1415208 0.026329149 0.29429892 0.0025716245 303 73
0.1433873 0.026403425 0.29439798 0.0016852041 560 135
0.14419119 0.026282502 0.29234573 0.0013410817 846 205
0.14595915 0.026337976 0.29228652 0.0010678143 1139 255
0.14753255 0.026357587 0.29186177 0.0010204717 1229 255
0.15013851 0.02655947 0.29348972 0.0010637074 1141 255
0.15242428 0.026701335 0.29449162 0.0011654126 1014 246
0.15390158 0.026700199 0.29396304 0.0012662208 923 223
0.15581395 0.026773844 0.29431048 0.0013115557 845 205
-0.17204101 0.027629357 0.28772911 0.005608947 103 24
-0.17616002 0.028532095 0.29673478 0.0054791919 115 27
-0.17602049 0.028754678 0.29870743 0.0049942615 124 30
-0.17494568 0.028827013 0.29917443 0.0052431352 120 29
-0.17353909 0.02884547 0.29914224 0.0047878153 127 30
-0.17080961 0.028642423 0.29687691 0.0043420438 142 34
-0.16855496 0.02851609 0.29547244 0.0043447767 145 35
-0.16694517 0.02849756 0.29525077 0.0039269989 164 39
-0.16542481 0.028494101 0.29525158 0.0037030687 181 43
-0.16494249 0.028671011 0.2971887 0.0040323804 185 44
-0.16452457 0.028862491 0.29934585 0.0039994167 198 48
-0.16436349 0.02910302 0.30208185 0.0035557225 182 44
-0.16292326 0.029119447 0.30256012 0.0033764148 198 48
-0.16253458 0.029325919 0.30508018 0.0031988858 216 52
-0.1641371 0.029899064 0.31148803 0.003448922 196 47
-0.17082259 0.031418186 0.32784513 0.0036487123 181 43
-0.17017871 0.031605795 0.33039582 0.0037071262 178 43
-0.16623458 0.031178128 0.32656354 0.0034626545 198 48
-0.1639365 0.031053731 0.32594448 0.0031890227 216 52
-0.1626991 0.031129777 0.32747078 0.0035719185 229 55
-0.16121033 0.031158788 0.32854149 0.0031311794 223 54
-0.159214 0.031089278 0.32860336 0.0032894162 205 49
-0.15805335 0.031183207 0.3304185 0.0032372822 209 50
-0.15728791 0.031357896 0.33311623 0.0031796 221 53
-0.15562734 0.031355936 0.33395639 0.003460441 227 55
-0.15447226 0.03145688 0.33590445 0.0031952157 228 55
-0.15365523 0.031629592 0.33863109 0.0032073755 214 51
-0.15247266 0.031730026 0.34059173 0.0032390964 229 55
-0.15061526 0.031690687 0.3410503 0.0033297378 247 59
-0.14910913 0.031725205 0.34229645 0.003182746 250 60
-0.14772555 0.031786878 0.34382811 0.0029779112 231 56
-0.14669852 0.031927567 0.34620723 0.0030134791 235 57
-0.14570989 0.032079969 0.34870613 0.0029842157 234 56
-0.14416431 0.032111887 0.34988308 0.0034174593 231 56
-0.14252029 0.032122374 0.35080901 0.0033328221 217 52
-0.14046483 0.032039266 0.35069102 0.003116132 223 54
-0.1386852 0.03201782 0.35122448 0.0032656561 218 52
-0.1374348 0.032119527 0.35308895 0.003128381 231 56
-0.13637854 0.032269713 0.35546964 0.0034695179 215 52
-0.13496624 0.032338377 0.35693422 0.0033681593 200 48
-0.13389967 0.032492686 0.35932562 0.003735991 210 50
-0.13266915 0.032610688 0.36129755 0.0033273948 213 51
-0.13083223 0.032580778 0.3616088 0.0033340636 214 51
-0.12958609 0.032699149 0.36354384 0.0036038538 195 47
-0.12848568 0.032857973 0.3659102 0.0036357748 181 43
-0.12732555 0.033005659 0.36813447 0.0036758895 184 44
-0.12583792 0.033071354 0.36942464 0.0038844363 194 47
-0.12378752 0.032988917 0.36903688 0.0038524603 188 45
-0.12243742 0.033093415 0.370718 0.0041282079 189 45
-0.12141504 0.033290792 0.37342179 0.003533521 189 45
-0.12034594 0.033480953 0.37602821 0.0038066169 173 41
-0.11917932 0.033649232 0.37837234 0.0044080419 163 39
-0.11762434 0.033711281 0.37950358 0.0041148104 164 39
-0.11622375 0.03382016 0.38114354 0.0038762873 174 42
-0.11495222 0.033970568 0.38323405 0.0040265759 162 39
-0.1134901 0.034068514 0.38471571 0.0040397109 157 38
-0.1127535 0.034390897 0.38871688 0.0042146351 150 36
-0.11155426 0.034580395 0.39120218 0.0048477473 147 35
-0.10976153 0.034589145 0.39162603 0.0041939886 152 36
-0.1080273 0.034616947 0.39224783 0.0043698042 147 35
-0.10704282 0.034890067 0.39563429 0.0044087567 140 33
-0.1066012 0.035352767 0.40115923 0.0046001431 135 32
-0.10593669 0.035756677 0.40600684 0.0044976682 136 32
-0.10595474 0.036409747 0.41367462 0.0047726384 132 32
nan nan nan 0 137 33
nan nan nan 0 126 30
nan nan nan 0 132 32
nan nan nan 0 128 31
nan nan nan 0 126 30
nan nan nan 0 130 31
nan nan nan 0 125 30
-0.11580051 0.046526793 0.5305137 0.0048779296 129 31
-0.11343098 0.046559591 0.53104883 0.0050543584 127 30
-0.11132788 0.046705615 0.53286129 0.0058100899 134 32
nan nan nan 0 131 31
-0.10722126 0.047061618 0.53717762 0.0060729668 125 30
-0.1040114 0.046732612 0.53352916 0.0051930933 125 30
-0.10030569 0.04615948 0.5270797 0.0058059315 117 28
nan nan nan 0 111 26
nan nan nan 0 106 25
nan nan nan 0 107 25
-0.075683892 0.038566172 0.44059777 0.0053818976 114 27
-0.073538005 0.038505681 0.43994245 0.0052311593 116 28
-0.070237666 0.037820127 0.43213794 0.0050917761 116 28
-0.068481937 0.037950542 0.43364987 0.0050628581 119 28
-0.066555902 0.037991587 0.43413469 0.0048053162 125 30
-0.063737631 0.037510082 0.42864251 0.0048744637 126 30
-0.061859824 0.037568953 0.42932022 0.0047953539 125 30
-0.059687637 0.037447024 0.42792699 0.0048799003 125 30
-0.058528148 0.037973825 0.43394285 0.0059757992 119 28
-0.056278102 0.037805293 0.43200886 0.004960937 123 29
-0.054155499 0.037713148 0.43094432 0.0049947449 117 28
-0.05165692 0.037342202 0.42669094 0.004940806 121 29
-0.04972003 0.03736401 0.42692268 0.0049579823 122 29
-0.047509264 0.037173327 0.42472422 0.0053354218 137 33
-0.045755569 0.037339244 0.42659804 0.0045119394 132 32
-0.044054285 0.037564754 0.42915073 0.0043295361 145 35
-0.042068612 0.037557568 0.42904356 0.0043139784 144 34
-0.039822794 0.03730597 0.42614335 0.004466882 155 37
-0.038007434 0.037452437 0.42778951 0.0046554427 156 37
-0.036006216 0.03742177 0.42741182 0.0046455446 156 37
-0.033737831 0.037093818 0.4236387 0.0042310501 158 38
-0.032004613 0.037350107 0.4265382 0.0039374675 164 39
-0.030266335 0.037633665 0.42974904 0.0039546341 158 38
-0.028289486 0.037639521 0.4297891 0.0044631874 152 36
-0.026009731 0.03721289 0.42489171 0.0047585433 145 35
-0.024070371 0.037243433 0.42521569 0.004136839 153 37
-0.02205169 0.037145775 0.42407709 0.0043052216 145 35
-0.0201113 0.03717383 0.42437515 0.0050805169 135 32
-0.018223751 0.037316129 0.4259789 0.0046578972 132 32
-0.016376404 0.037585083 0.42902991 0.0048765196 127 30
-0.014273671 0.037261285 0.42531648 0.0047052377 125 30
-0.012274013 0.037146252 0.42398828 0.00486951 126 30
-0.010337235 0.037213985 0.42474809 0.0050521842 122 29
-0.0084217908 0.037408147 0.42695311 0.0048245755 121 29
-0.0064697945 0.037508931 0.42809448 0.004812899 122 29
-0.0044574239 0.037194472 0.42449903 0.0054375585 117 28
-0.00250902 0.037339222 0.42614681 0.0053410879 125 30
-0.00054296019 0.037317995 0.42590266 0.0046888455 130 31
0.0014232609 0.037359666 0.42637882 0.0056650876 114 27
0.00339939 0.037462175 0.42755166 0.0049196705 119 28
0.0053608771 0.037387293 0.42670232 0.0048841569 127 30
0.0073233717 0.037357774 0.42637298 0.0051180837 119 28
0.0092536565 0.037211228 0.42471024 0.005505844 121 29
0.011134151 0.036950652 0.42174813 0.0056356448 121 29
0.013317944 0.03762443 0.42945287 0.0056029013 118 28
0.015180423 0.037333529 0.42614862 0.0058439532 123 29
0.017012034 0.037042104 0.42284 0.0056566712 117 28
0.019040743 0.037195642 0.42461258 0.0054392517 108 26
0.021200903 0.037553389 0.42871806 0.0063073896 112 27
0.023152707 0.03751253 0.4282746 0.0052010817 115 27
0.025107233 0.03748215 0.4279522 0.0054320688 107 25
nan nan nan 0 113 27
nan nan nan 0 100 24
nan nan nan 0 108 26
0.038579836 0.043819409 0.50043207 0.0062651951 108 26
0.04191782 0.044924445 0.51308501 0.0052961181 123 29
nan nan nan 0 122 29
nan nan nan 0 124 30
nan nan nan 0 127 30
0.05086828 0.044478625 0.50812054 0.0049896184 121 29
0.052263297 0.043687358 0.4991098 0.0052136267 127 30
nan nan nan 0 123 29
nan nan nan 0 124 30
nan nan nan 0 114 27
nan nan nan 0 122 29
0.053455569 0.036625162 0.41851747 0.0056452947 125 30
0.053536691 0.035403721 0.40456939 0.005605951 131 31
0.054914847 0.03509333 0.40102848 0.0046610609 135 32
0.056667939 0.035034962 0.40036353 0.0046793092 134 32
0.058536701 0.03504952 0.40052781 0.0055066291 126 30
0.058691014 0.034068014 0.38930523 0.0048883134 133 32
0.059864376 0.033718709 0.38530234 0.0043349536 143 34
0.061612494 0.03370392 0.38511696 0.0046522031 135 32
0.063201375 0.033605292 0.3839682 0.004344766 142 34
0.064805843 0.033520099 0.38296705 0.004720442 144 34
0.066024855 0.033245333 0.37979412 0.0041570528 155 37
0.067363895 0.033043638 0.37744975 0.0040975688 153 37
0.068980239 0.032984693 0.3767294 0.0045642811 147 35
0.07040754 0.032840475 0.37502784 0.0046324874 154 37
0.071736634 0.032658454 0.37288734 0.0041779485 152 36
0.073311292 0.032594133 0.37208298 0.0039987084 157 38
0.074811712 0.032500505 0.37093589 0.0040158574 160 38
0.075912207 0.032241207 0.36788976 0.0041550612 177 42
0.077403195 0.032155473 0.36681566 0.0037190085 174 42
0.079250686 0.032218341 0.36742699 0.0042254506 173 41
0.080581278 0.032072838 0.36565199 0.0037153491 177 42
0.081644304 0.031829 0.36274672 0.0036158795 185 44
0.082938939 0.031683441 0.36095196 0.0033970354 199 48
0.083909065 0.031422105 0.35782859 0.0035365473 201 48
0.085468702 0.031387366 0.35727525 0.0035331433 190 46
0.086457871 0.031148413 0.35438657 0.0040346836 192 46
0.087805077 0.031044954 0.35302868 0.0036132699 197 47
0.088994622 0.030890545 0.35107985 0.0032119807 214 51
0.090549283 0.030866144 0.35059622 0.0036127572 195 47
0.092355341 0.030926785 0.35106435 0.0037064021 186 45
0.093408242 0.030737482 0.34868181 0.0034714327 196 47
0.093139224 0.030127041 0.34151337 0.0033652009 200 48
0.094706602 0.030121095 0.34118736 0.0031940325 215 52
0.096305855 0.03012532 0.3409611 0.0031238995 221 53
0.097595073 0.030034 0.33963823 0.0032611724 225 54
0.099124104 0.030018212 0.33915412 0.0033180274 228 55
0.10080967 0.030049581 0.3391858 0.0029379497 243 58
0.10149933 0.029787704 0.33589274 0.0029105705 243 58
0.10222145 0.029543178 0.33278358 0.0033447235 237 57
0.10348968 0.029461449 0.33149406 0.0031727192 261 63
0.10492566 0.029429186 0.33074427 0.0028585359 250 60
0.10599385 0.029296203 0.32884595 0.0029727072 248 60
0.10671754 0.029073181 0.32592291 0.0026872265 269 65
0.10817309 0.029053027 0.32525826 0.0029557985 268 65
0.10979727 0.029078098 0.32508007 0.0027012134 277 67
0.11115466 0.0290328 0.32409552 0.0027794801 274 66
0.11184122 0.028815884 0.32117924 0.0026891425 289 70
0.11286008 0.028689248 0.31925476 0.0027627116 299 72
0.11421624 0.028650565 0.3182914 0.002906769 276 66
0.11596746 0.028710697 0.31840464 0.0024948469 298 72
0.11730755 0.028668806 0.31736529 0.002788669 289 70
0.11336675 0.027353777 0.30223951 0.0025625806 340 82
0.11286445 0.026890995 0.29654783 0.0023168824 360 87
0.11406312 0.026839925 0.29538828 0.002146923 375 90
0.11541602 0.026825957 0.29461944 0.0021170438 380 92
0.11674872 0.026807683 0.29378563 0.0024368863 349 84
0.11837034 0.026855398 0.29365626 0.0022432443 349 84
0.12005384 0.026915858 0.29364637 0.0022733633 345 83
0.1215383 0.026930805 0.29312181 0.0022905702 361 87
0.12294079 0.026927454 0.29238272 0.0023712581 346 83
0.12468468 0.026998101 0.29243165 0.0023730251 321 77
0.12607233 0.026990889 0.29162371 0.0025172504 329 79
0.12718177 0.02692494 0.29017326 0.0023853164 318 77
0.12887901 0.026983514 0.2900576 0.0027543008 299 72
0.13049559 0.027024107 0.2897411 0.0027501308 293 71
0.13230217 0.027102748 0.28982762 0.002630122 285 69
0.13524978 0.027410958 0.2923601 0.0027663058 263 63
0.13857554 0.027788492 0.29561877 0.0029911194 267 64
0.14053746 0.027887505 0.29591152 0.0023415564 333 80
0.14212577 0.027911099 0.29541546 0.0015033281 650 157
0.14333101 0.027859757 0.29414672 0.0011654176 986 239
0.14478599 0.027857499 0.29342252 0.0010539653 1194 255
0.1465084 0.02790623 0.29326421 0.00099775451 1294 255
0.14950527 0.028194338 0.29564911 0.0010802832 1125 255
0.15194581 0.028372895 0.29691562 0.0011571372 989 239
0.15326357 0.028340358 0.29601601 0.0012057112 932 226
0.15503226 0.02839103 0.29603571 0.0013315205 862 209
0.15749978 0.02856748 0.29741803 0.0013306799 788 191
-0.17658098 0.029851416 0.29539189 0.005819357 96 23
-0.17743777 0.030252028 0.29894939 0.0055270679 112 27
-0.17717004 0.030466165 0.3007119 0.0056789983 111 26
-0.17530143 0.030406341 0.29982677 0.0064449981 106 25
-0.17339487 0.030338829 0.29892743 0.0047620186 127 30
-0.17182755 0.030330004 0.29866922 0.0044691344 135 32
-0.17017314 0.030305512 0.29832101 0.0042395862 153 37
-0.16760029 0.03011555 0.29640985 0.0041401912 156 37
-0.1661227 0.030120734 0.29648581 0.003954866 156 37
-0.1654772 0.03027826 0.2981286 0.003844392 168 40
-0.16515201 0.030497845 0.30045134 0.0038949787 180 43
-0.16441393 0.03064457 0.30212578 0.0039861696 178 43
-0.16334449 0.03073171 0.30328098 0.0039429739 189 45
-0.16210707 0.030788606 0.30420387 0.0033007443 214 51
-0.16150084 0.030967627 0.30639875 0.0034412071 212 51
-0.15999669 0.030976262 0.30696973 0.0032037161 210 50
-0.16435136 0.032130461 0.31896895 0.0032899459 202 49
-0.1682204 0.033211581 0.33033651 0.0035837553 189 45
-0.1660742 0.033114832 0.33005667 0.0035741185 189 45
-0.16326393 0.032882389 0.3284612 0.003331033 203 49
-0.16076146 0.032707836 0.32747278 0.0034033805 211 51
-0.15947694 0.03278004 0.3289845 0.003405524 225 54
-0.15796991 0.03280754 0.33007607 0.0034166672 206 49
-0.15669975 0.03288532 0.33169687 0.0030534223 229 55
-0.1551753 0.032910824 0.33280814 0.0031106167 223 54
-0.15337324 0.03287736 0.33333308 0.0030230999 234 56
-0.15350087 0.033261307 0.33810475 0.003199331 208 50
-0.15232441 0.033367999 0.3400721 0.0031256452 222 53
-0.15092383 0.03342741 0.34155914 0.0032778014 222 53
-0.14915049 0.033404667 0.34220135 0.0031656595 241 58
-0.14758308 0.033428054 0.34330672 0.003233236 242 58
-0.14652014 0.033567552 0.34559646 0.0034657549 232 56
-0.14565727 0.033756644 0.34839064 0.0029751563 247 59
-0.14434773 0.033845443 0.35014006 0.0034468295 224 54
-0.14239213 0.033783074 0.35030797 0.0034105808 222 53
-0.14066735 0.033774626 0.35101366 0.0031464195 234 56
-0.13884039 0.033741139 0.35143751 0.0029949697 245 59
-0.13700749 0.033705361 0.35181439 0.00325948 234 56
-0.13542087 0.033730038 0.35279983 0.0032541309 223 54
-0.13413137 0.033830281 0.35455564 0.003289771 210 50
-0.13304059 0.033983845 0.35685235 0.0035708435 209 50
-0.13136677 0.033990521 0.35758665 0.0033588016 217 52
-0.13013189 0.034112431 0.35951221 0.00317881 222 53
-0.1291583 0.034306992 0.3621859 0.0033943271 195 47
-0.12845431 0.034579359 0.36566579 0.0037201005 177 42
-0.12752685 0.034798194 0.36856455 0.0036511938 178 43
-0.1256334 0.034755837 0.36867666 0.0034044981 198 48
-0.12341467 0.034621045 0.36778244 0.0035420773 198 48
-0.12184413 0.034666844 0.36878279 0.0041483562 179 43
-0.12061327 0.034811996 0.37082055 0.0035690127 187 45
-0.11957818 0.035018738 0.37349752 0.0037632885 173 41
-0.11862554 0.035256132 0.37648559 0.0043893838 171 41
-0.11626147 0.035074871 0.37498277 0.0038209746 173 41
-0.11551102 0.035382334 0.37868571 0.0045111668 167 40
-0.11441662 0.035592355 0.38133147 0.0042038858 159 38
-0.11259769 0.03558008 0.38157782 0.0037734336 171 41
-0.11188682 0.035923168 0.38561928 0.004615739 157 38
-0.11061396 0.036094073 0.38779864 0.0041644089 154 37
-0.10887179 0.036114968 0.3883495 0.0042108824 150 36
-0.10702331 0.036100715 0.38850451 0.0049318047 144 34
-0.10548576 0.036192648 0.38978535 0.0047645136 146 35
-0.1055103 0.036833115 0.39696246 0.0043422505 150 36
-0.10447576 0.037120044 0.40031958 0.0043884576 149 36
-0.10307021 0.037283152 0.40232819 0.0044195075 137 33
-0.10068632 0.037091862 0.40049651 0.0047950693 135 32
-0.09984187 0.037471153 0.40481141 0.0048504737 131 31
-0.099431925 0.038031146 0.41106898 0.0049121594 123 29
-0.097998202 0.038213767 0.41323704 0.0048071286 134 32
-0.097011447 0.038581409 0.41739467 0.0054325778 130 31
nan nan nan 0 130 31
nan nan nan 0 122 29
nan nan nan 0 122 29
nan nan nan 0 129 31
nan nan nan 0 126 30
nan nan nan 0 130 31
-0.1043383 0.048207205 0.52268296 0.0051240344 126 30
-0.10375556 0.049071882 0.53216946 0.0062168818 124 30
-0.10110587 0.048977192 0.53124142 0.0050289612 130 31
nan nan nan 0 125 30
nan nan nan 0 118 28
nan nan nan 0 125 30
-0.089803964 0.048170473 0.52277297 0.0049949465 130 31
-0.08692684 0.047912523 0.52001989 0.005291767 122 29
-0.084498301 0.047894217 0.51985902 0.0056688432 121 29
nan nan nan 0 122 29
nan nan nan 0 112 27
nan nan nan 0 113 27
nan nan nan 0 118 28
-0.061721776 0.040761821 0.44251105 0.0053021209 112 27
-0.05918172 0.040419355 0.43879187 0.0059090848 107 25
-0.056953672 0.04027329 0.43720075 0.0053319791 109 26
-0.054525726 0.039969977 0.43389899 0.0057126181 115 27
-0.052400727 0.03987411 0.43284601 0.0051580803 114 27
-0.05015482 0.039675001 0.43066955 0.0062087914 114 27
-0.047918029 0.039467011 0.42839438 0.0053242031 110 26
-0.045984395 0.039501559 0.42874965 0.0050214827 120 29
-0.044363324 0.039819762 0.43218181 0.0051825228 112 27
-0.042378448 0.039825991 0.43222624 0.0057646227 113 27
-0.040415697 0.039854638 0.43251279 0.0049808836 118 28
-0.038092628 0.039512519 0.42877504 0.0055979891 124 30
-0.036021218 0.039408281 0.42761841 0.0050666831 117 28
-0.034109734 0.039477069 0.42833892 0.0049211881 123 29
-0.032128625 0.039468776 0.42822298 0.0046912162 126 30
-0.030295735 0.039653394 0.43020013 0.0045987936 134 32
-0.028506527 0.039925057 0.43312192 0.0048563341 125 30
-0.026298003 0.039606139 0.42963755 0.0049340543 123 29
-0.024129774 0.039300889 0.4263027 0.0050061932 119 28
-0.022164484 0.03930134 0.42628509 0.0055829403 126 30
-0.02029743 0.039493028 0.42834294 0.0058429078 121 29
-0.018285761 0.039414324 0.42746943 0.0053103543 125 30
-0.016279396 0.039329421 0.42653039 0.0055521587 121 29
-0.014354847 0.039446 0.42777818 0.0052181287 127 30
-0.012371327 0.039411858 0.42739332 0.0049366746 117 28
-0.010348697 0.039216571 0.42526296 0.0057478691 111 26
-0.0084267883 0.039400894 0.42725113 0.0048624352 129 31
-0.006496558 0.039646946 0.42991072 0.0050224466 123 29
-0.0045245616 0.039742313 0.43093848 0.0058459202 124 30
-0.0025208869 0.039490871 0.4282079 0.0057107154 128 31
-0.00054835196 0.039672714 0.43017787 0.0055718911 125 30
0.0014383782 0.039744206 0.43095362 0.0050698244 120 29
0.0034148218 0.039613415 0.42953819 0.0050425087 119 28
0.0053970735 0.039621301 0.42962882 0.0058586593 122 29
0.0073291855 0.039355718 0.42675626 0.0047996463 127 30
0.0092562372 0.039181162 0.42487288 0.0051899389 113 27
0.011366745 0.03970848 0.43060264 0.005293061 114 27
0.013420021 0.039908756 0.43278819 0.0055260812 105 25
0.015599535 0.040383972 0.4379575 0.0056621698 105 25
nan nan nan 0 101 24
0.021030083 0.043244552 0.46901986 0.0059343833 97 23
nan nan nan 0 101 24
0.026773881 0.045663387 0.49530298 0.0056218752 107 25
0.029128017 0.04577399 0.49652943 0.0054090573 108 26
0.031554535 0.045973938 0.49872643 0.0053775171 124 30
nan nan nan 0 113 27
nan nan nan 0 121 29
0.03964562 0.047400571 0.51429421 0.0051596831 130 31
0.041901048 0.0472706 0.51291502 0.0051388983 120 29
nan nan nan 0 124 30
nan nan nan 0 127 30
nan nan nan 0 122 29
nan nan nan 0 126 30
nan nan nan 0 125 30
nan nan nan 0 122 29
0.046764735 0.037820313 0.41052809 0.0050990987 122 29
0.048358623 0.037588987 0.40803272 0.0050589931 119 28
0.049857903 0.037304182 0.40495414 0.0054924069 133 32
0.051606901 0.037220027 0.40405074 0.0046493053 133 32
0.052685842 0.036675289 0.39814401 0.0046681724 134 32
0.054253601 0.036496036 0.3962014 0.0048954347 141 34
0.055840384 0.036340829 0.39451593 0.0051435255 130 31
0.057341963 0.036141705 0.39234957 0.0054547265 132 32
0.058605183 0.035809107 0.38872975 0.0049628667 136 32
0.059619464 0.035348639 0.38371727 0.0048668953 138 33
0.061553016 0.035444036 0.38473371 0.0042767259 146 35
0.063263066 0.035408996 0.38432866 0.0047183614 143 34
0.064691693 0.035222635 0.38227537 0.0045259558 153 37
0.066389702 0.035188943 0.38187289 0.0042244401 153 37
0.067623675 0.034917384 0.37888256 0.0040916214 156 37
0.06884858 0.034654927 0.3759847 0.0043823686 163 39
0.070185147 0.034460191 0.37381473 0.0040519447 155 37
0.071415313 0.034223799 0.37118578 0.0048702704 151 36
0.072626002 0.033989355 0.36857066 0.0038332352 174 42
0.074225299 0.033943348 0.36799091 0.0041013625 178 43
0.075820088 0.033897389 0.36740288 0.0044088485 171 41
0.077512547 0.033896141 0.3672902 0.0038573788 167 40
0.078915477 0.033771053 0.3658261 0.0038073657 169 41
0.08045961 0.033710361 0.3650499 0.003730434 178 43
0.081676506 0.033517875 0.36283669 0.0042264741 178 43
0.082549743 0.033194937 0.3592023 0.0037155913 189 45
0.083781607 0.033026099 0.35722616 0.0034297002 196 47
0.084633201 0.0327168 0.35372093 0.0033999654 201 48
0.085832924 0.032551244 0.35176009 0.0038338308 190 46
0.087482683 0.032559346 0.35166407 0.0040047811 194 47
0.08896789 0.032507032 0.35090268 0.0032650309 209 50
0.090432689 0.032449272 0.35006967 0.0032004479 214 51
0.092087403 0.0324605 0.34996715 0.0033445833 202 49
0.093583487 0.032416381 0.34925377 0.0035868066 208 50
0.092362061 0.03144848 0.33858049 0.0032715874 225 54
0.093867324 0.03142586 0.33807707 0.0031915065 241 58
0.095718913 0.03151802 0.33879247 0.0035459704 228 55
0.097222537 0.031494483 0.33824763 0.0030188975 231 56
0.098963462 0.031547334 0.33850661 0.0031584643 245 59
0.10054988 0.031550042 0.33821005 0.0033831296 225 54
0.10117986 0.031257208 0.33473107 0.0030120979 243 58
0.10183539 0.030981049 0.33141953 0.0028406552 255 61
0.10309645 0.030894632 0.33012393 0.0031017223 263 63
0.10474217 0.03092433 0.33005142 0.0027519427 263 63
0.10553341 0.030704558 0.32730013 0.002681942 275 66
0.10631406 0.030488051 0.32457057 0.0025206192 296 71
0.10755488 0.030407766 0.32327595 0.0028780825 272 65
0.10912381 0.030421192 0.32295901 0.0027733 290 70
0.1110479 0.030531894 0.32365289 0.0029088142 274 66
0.11263435 0.030548021 0.32332194 0.0025936016 290 70
0.11316002 0.030279871 0.3199659 0.0025698503 291 70
0.11411661 0.030132588 0.3178736 0.0026108436 286 69
0.11369859 0.029630901 0.31203392 0.0025981825 292 70
0.11107016 0.028573491 0.30035117 0.0023338513 332 80
0.11198233 0.028442213 0.29840675 0.002215889 356 86
0.11290248 0.028316224 0.29650357 0.002170841 361 87
0.11436246 0.028327079 0.29601642 0.0022856048 366 88
0.11550573 0.028260177 0.2946991 0.0023116407 371 90
0.11702539 0.028285867 0.29432985 0.0022637965 355 86
0.11864056 0.028333757 0.29417211 0.0024423765 332 80
0.12017839 0.028362257 0.2937943 0.0022701672 345 83
0.12139546 0.028315281 0.29261917 0.002221667 358 86
0.12325861 0.028418345 0.29297847 0.0023546892 327 79
0.12500688 0.028492874 0.29302585 0.0024945559 310 75
0.12632725 0.028469294 0.29205152 0.002629614 311 75
0.12788795 0.028499799 0.29162243 0.00241697 312 75
0.12961683 0.02856669 0.29155618 0.0025787381 289 70
0.13186017 0.028744275 0.2926091 0.0025333387 298 72
0.13380674 0.028854031 0.29296291 0.0028210494 291 70
0.13817726 0.029478572 0.29852676 0.0027292836 268 65
0.13950235 0.029447075 0.29743806 0.0022262025 384 93
0.14092991 0.029437639 0.29658434 0.0014625898 707 171
0.14242223 0.029441787 0.2958833 0.0011229092 1047 254
0.14393042 0.029449098 0.2952345 0.0010240702 1292 255
0.14535278 0.029438874 0.29443586 0.0010454309 1241 255
0.14840397 0.029755445 0.29692978 0.0010897692 1117 255
0.15139677 0.030054133 0.29926825 0.0011466307 1012 245
0.15281312 0.030037085 0.29849893 0.00118332 956 231
0.15471004 0.030113904 0.29870832 0.0012175496 918 222
0.15662223 0.030192196 0.29898122 0.0013372424 836 202
0.15799424 0.030165847 0.29827285 0.0013529796 789 191
-0.17962669 0.031885002 0.30056301 0.0059969113 102 24
-0.17937997 0.032112714 0.30228946 0.0054429909 111 26
-0.17901482 0.032322962 0.30390182 0.005619477 103 24
-0.17688432 0.032215331 0.30258244 0.0058118552 116 28
-0.17353494 0.031881891 0.29920626 0.0049923905 124 30
-0.17221454 0.031918623 0.29936817 0.0049721561 124 30
-0.17104359 0.031983942 0.29986167 0.0050222818 123 29
-0.16859356 0.031809118 0.29816914 0.0049776272 132 32
-0.16685897 0.031767327 0.29779014 0.004295506 152 36
-0.16633227 0.03195684 0.29964656 0.0040609962 157 38
-0.16580459 0.032149665 0.30160287 0.0038522072 166 40
-0.16498198 0.032288361 0.30312052 0.004056388 179 43
-0.1638048 0.03235963 0.30407333 0.003647303 172 41
-0.16253829 0.032414429 0.3049376 0.0033782066 198 48
-0.16060911 0.032336861 0.30461898 0.0034820924 203 49
-0.16046558 0.032620795 0.30776832 0.0033860463 205 49
-0.15843593 0.032523099 0.30737588 0.0030972234 231 56
-0.15761913 0.032674909 0.30939442 0.0033054133 234 56
-0.16368622 0.034271024 0.32516971 0.003216736 220 53
-0.1662485 0.035158101 0.3343108 0.0037637148 200 48
-0.16337089 0.034901105 0.33262551 0.0036068864 189 45
-0.16055511 0.034652166 0.3310391 0.003344764 209 50
-0.15783793 0.034419555 0.3296251 0.0032748005 211 51
-0.15673518 0.034537818 0.33159021 0.0032371883 207 50
-0.15492199 0.034500375 0.33207867 0.0031242461 218 52
-0.15361641 0.034576386 0.33367121 0.0031229076 221 53
-0.15256131 0.034711029 0.33584121 0.003137134 221 53
-0.15154746 0.034858115 0.33814064 0.003153217 222 53
-0.15035008 0.03496578 0.34006202 0.0034405924 230 55
-0.14962833 0.035187703 0.3430973 0.0030528882 227 55
-0.14784338 0.03516179 0.34371212 0.0031013892 229 55
-0.1455005 0.035001077 0.34299302 0.0029853706 236 57
-0.14549768 0.035406075 0.34780958 0.0036205414 215 52
-0.14338113 0.035300173 0.3475984 0.0030753054 245 59
-0.14186545 0.035341457 0.34881723 0.0033867033 224 54
-0.14068393 0.035467967 0.35086194 0.0031129906 229 55
-0.1391508 0.035507835 0.35203275 0.0031531989 241 58
-0.13714853 0.035427496 0.35198972 0.0029760909 244 59
-0.13533831 0.035395384 0.35240149 0.0035356015 216 52
-0.13418072 0.035535298 0.35450563 0.0038378765 195 47
-0.13264881 0.035578389 0.35562462 0.0033729556 209 50
-0.13082166 0.03554238 0.35592991 0.0034661249 213 51
-0.12935902 0.035605762 0.35720795 0.0034591265 228 55
-0.12921332 0.036038127 0.36217302 0.0037090706 202 49
-0.12813319 0.03621801 0.36458802 0.0034554009 193 46
-0.12749442 0.036529262 0.36831006 0.0039740782 197 47
-0.12501386 0.036314111 0.366703 0.0032780308 206 49
-0.12340943 0.036351003 0.36761549 0.0034939279 196 47
-0.12157396 0.036319923 0.36781824 0.0035464456 191 46
-0.12013605 0.036408421 0.3692106 0.003854651 199 48
-0.11900133 0.036592744 0.37155652 0.0037772323 181 43
-0.1177066 0.036732618 0.37343377 0.0037576414 178 43
-0.11646064 0.036892157 0.37549368 0.0037583669 177 42
-0.1141966 0.036729142 0.37424999 0.0039399932 179 43
-0.11406263 0.037256807 0.38002762 0.0039796541 165 40
-0.11290636 0.037461955 0.38250354 0.0042438116 167 40
-0.11087006 0.037377011 0.38199934 0.0037937053 168 40
-0.1092137 0.037419472 0.38277805 0.0039656484 160 38
-0.10810538 0.037654232 0.38550788 0.0042160428 157 38
-0.10648081 0.03771406 0.38643134 0.004788219 156 37
-0.10463137 0.037694938 0.38652885 0.0039746119 167 40
-0.10329473 0.037863117 0.38853118 0.0047447416 154 37
-0.10198789 0.038048375 0.39069483 0.0041082185 154 37
-0.10013321 0.038032271 0.39077601 0.0046442095 144 34
-0.099418201 0.038456406 0.39536777 0.0043813293 144 34
-0.09844736 0.03879565 0.39907613 0.0048696352 138 33
-0.097860515 0.039302092 0.40449432 0.0045187543 138 33
-0.0965278 0.039522894 0.40696225 0.0051271408 131 31
-0.095311455 0.039801076 0.41000947 0.0051859738 130 31
-0.093953416 0.040030174 0.41253987 0.0051601622 125 30
-0.091753744 0.039902747 0.4113836 0.0045891842 135 32
-0.090584569 0.040227558 0.41487789 0.0050282208 124 30
-0.089615218 0.04065707 0.41944253 0.0050163525 130 31
nan nan nan 0 121 29
nan nan nan 0 123 29
nan nan nan 0 128 31
nan nan nan 0 123 29
nan nan nan 0 121 29
nan nan nan 0 123 29
nan nan nan 0 124 30
nan nan nan 0 125 30
-0.088760659 0.049991999 0.51667076 0.0049740663 128 31
-0.087131582 0.050427262 0.52121979 0.0050161299 127 30
-0.085090727 0.050642125 0.52348286 0.0054863417 127 30
nan nan nan 0 124 30
nan nan nan 0 126 30
nan nan nan 0 125 30
nan nan nan 0 129 31
-0.072375 0.050187826 0.51888698 0.0058238041 124 30
-0.069958858 0.050169423 0.51869863 0.005411935 116 28
-0.065900691 0.04893053 0.50588679 0.0053954073 115 27
-0.062759653 0.048306722 0.49943012 0.0055362526 117 28
nan nan nan 0 108 26
nan nan nan 0 110 26
nan nan nan 0 98 23
-0.046857409 0.042264588 0.43690693 0.0069714021 95 23
