# .PCD v0.7 - Point Cloud Data file format
VERSION 0.7
FIELDS x y z noise intensity gray
SIZE 4 4 4 4 2 1
TYPE F F F F U U
COUNT 1 1 1 1 1 1
WIDTH 980
HEIGHT 1
VIEWPOINT 0 0 0 1 0 0 0
POINTS 980
DATA ascii
0.12250701 0.19994766 0.56926298 0.0018585474 453 96
0.12591903 0.20102178 0.57162547 0.0020275828 402 85
0.12915997 0.20178261 0.57306993 0.0021331916 363 77
0.13227785 0.20232335 0.57386398 0.0023069903 328 69
0.13503361 0.20229942 0.57303399 0.0023224487 327 69
0.1376881 0.20212777 0.57176608 0.0023970807 343 72
0.14046794 0.20214328 0.57100815 0.0021365981 361 76
0.14347406 0.2024775 0.57112974 0.0019906245 414 87
0.14622547 0.20244643 0.57020062 0.0020199209 398 84
0.14969251 0.20338885 0.57199126 0.0027014206 283 60
0.15258284 0.20352754 0.57149947 0.0027589505 258 54
0.15581073 0.20410348 0.57221562 0.0027864075 253 53
0.15889595 0.20447549 0.57234049 0.0029842106 249 52
0.1608718 0.20343176 0.56849152 0.0030704213 248 52
0.16486821 0.20493516 0.57174575 0.0030244202 227 48
0.16802929 0.20536724 0.57199132 0.002979581 234 49
0.17133832 0.20596299 0.57267922 0.0034625155 203 43
0.17401604 0.20579286 0.57122862 0.0033772336 191 40
0.1762502 0.20511192 0.56836003 0.0035239679 198 42
0.17951798 0.20563637 0.56883085 0.0035392875 185 39
0.18554072 0.2092516 0.57783306 0.0038653365 166 35
0.1884173 0.20926262 0.57687002 0.0041156593 157 33
0.19114587 0.20911138 0.57546848 0.0040564849 158 33
0.19421212 0.20932858 0.57509267 0.0039213481 161 34
0.19726357 0.20952374 0.57467043 0.004144744 151 32
0.20264313 0.21215062 0.58092523 0.004629808 135 28
0.20815362 0.21483839 0.5873481 0.0058358582 118 25
0.21353811 0.21732295 0.5932228 0.0061538382 92 19
0.21773458 0.21854672 0.59567505 0.0064398074 90 19
0.2217904 0.21959804 0.5976879 0.0068659559 83 17
0.22282137 0.21766636 0.59162909 0.0076125599 74 15
0.22551945 0.21739274 0.59013367 0.0086691622 67 14
0.22697085 0.21594013 0.58549649 0.0081405677 70 14
0.2292691 0.21532029 0.58318013 0.010459804 62 13
0.2323149 0.21540928 0.58284581 0.0092494739 60 12
0.23761953 0.21756423 0.58816004 0.0092499508 61 12
0.24229275 0.21909486 0.59184605 0.0094920201 60 12
0.24479376 0.21864782 0.59025866 0.0090935286 63 13
0.24486221 0.21606511 0.58298379 0.0071535716 95 20
0.23330978 0.20341234 0.5486297 0.0023575041 335 71
0.23787828 0.2049475 0.55262637 0.0018073893 525 111
nan nan nan 0 565 119
nan nan nan 0 522 110
nan nan nan 0 2560 255
nan nan nan 0 2766 255
nan nan nan 0 2763 255
nan nan nan 0 2737 255
nan nan nan 0 2707 255
nan nan nan 0 2475 255
0.24563515 0.19130832 0.5177356 0.00086184882 1572 255
0.25301975 0.19497931 0.52822489 0.0014770749 656 139
nan nan nan 0 341 72
nan nan nan 0 255 54
nan nan nan 0 621 131
0.26030421 0.19246534 0.52421808 0.0009656967 1317 255
0.25864196 0.18931861 0.51647967 0.0010178054 1123 238
0.26200262 0.18987451 0.51888496 0.001598764 616 130
0.26922289 0.19318907 0.52890003 0.003199819 217 46
0.26880845 0.19101389 0.52394199 0.0026962771 243 51
0.27084795 0.19060764 0.52387142 0.001888452 427 90
0.26115426 0.18203081 0.50134015 0.00099919899 1364 255
-0.28797221 0.1801583 0.50182831 0.0026090583 288 61
-0.29065219 0.1833854 0.51140523 0.003750182 192 40
-0.28906819 0.18395458 0.51297224 0.0041622808 160 33
-0.29081878 0.18667401 0.52006638 0.0035042025 189 40
-0.28565156 0.18496174 0.51448572 0.0031634348 213 45
-0.27659559 0.18067899 0.50157464 0.0047714887 149 31
-0.27008685 0.17799866 0.49302846 0.0015638304 586 124
-0.26951224 0.17921621 0.4952231 0.0017041976 506 107
-0.28910634 0.19398887 0.53474158 0.0081400508 80 16
-0.29215714 0.19782992 0.54400069 0.0097005954 62 13
nan nan nan 0 73 15
-0.3079302 0.21239775 0.58127379 0.018800266 30 6
-0.31064591 0.21628711 0.59055305 0.020941256 31 6
nan nan nan 0 135 28
-0.26936913 0.1911453 0.51961076 0.0019146216 437 92
-0.26778477 0.19186097 0.52046889 0.0029888665 271 57
-0.27231637 0.1970154 0.53338188 0.0049236286 144 30
-0.27447993 0.20054147 0.54188883 0.0028986665 229 48
-0.27269319 0.20122291 0.54273891 0.00273312 262 55
-0.25602484 0.19082615 0.51380724 0.0017355732 514 109
-0.25939968 0.19530892 0.52502042 0.0026688329 292 61
nan nan nan 0 129 27
-0.26259762 0.20182399 0.54093575 0.003739994 183 38
nan nan nan 0 95 20
nan nan nan 0 50 10
nan nan nan 0 192 40
-0.24354276 0.19529289 0.52105278 0.0020633601 428 90
-0.24840961 0.20137785 0.53683728 0.0021904865 352 74
-0.24224959 0.19855951 0.5289467 0.0015090833 612 129
-0.23683769 0.19629803 0.52261651 0.0012430818 1002 212
-0.24090436 0.20193048 0.53736717 0.0016509094 546 115
-0.2365903 0.20058663 0.53361773 0.0021695653 369 78
-0.2292392 0.19660687 0.52292973 0.0021150049 384 81
-0.23568887 0.20450884 0.5439142 0.0036692079 190 40
-0.23227318 0.20393652 0.54243076 0.0018623021 469 99
-0.22331023 0.19842143 0.52786827 0.00091958913 1362 255
-0.21888253 0.19685106 0.52386391 0.00095060875 1280 255
-0.22199981 0.20211104 0.53810775 0.0024296266 303 64
-0.21948296 0.20230882 0.53894711 0.0024841854 289 61
-0.21862145 0.20405667 0.54398376 0.0017731379 464 98
-0.21009627 0.19860464 0.52988058 0.00092318776 1440 255
-0.21802412 0.20876588 0.55750507 0.0010271227 1224 255
nan nan nan 0 2398 255
nan nan nan 0 2804 255
nan nan nan 0 2863 255
nan nan nan 0 2887 255
nan nan nan 0 2816 255
nan nan nan 0 2719 255
nan nan nan 0 2661 255
nan nan nan 0 2860 255
nan nan nan 0 2764 255
nan nan nan 0 1371 255
nan nan nan 0 1464 255
nan nan nan 0 365 77
-0.18851419 0.21701734 0.59048045 0.0059369858 101 21
-0.18797536 0.21981691 0.59911108 0.0084375506 71 15
-0.18780012 0.22313839 0.60919565 0.0084386356 72 15
-0.18412642 0.22234368 0.60805404 0.010192346 59 12
-0.17897992 0.2197146 0.60187745 0.0088827647 61 12
-0.1752508 0.21876617 0.60028249 0.0091144545 66 14
-0.17113495 0.21729413 0.59723192 0.0099227913 64 13
-0.1675923 0.21651118 0.59605503 0.0090442766 70 14
-0.16738775 0.22008951 0.60688531 0.0086264666 72 15
-0.16435362 0.22000954 0.6076296 0.0074694259 78 16
-0.15974738 0.21778335 0.60242134 0.0070782858 89 18
-0.15496038 0.21522254 0.59625036 0.006878973 98 20
-0.1482278 0.2098099 0.58212805 0.0058077364 114 24
-0.14287829 0.20618197 0.5729025 0.0043517249 159 33
-0.13905077 0.20464973 0.56946075 0.0038291796 178 37
-0.13593642 0.20412625 0.56879914 0.0039300541 159 33
-0.13288432 0.20367648 0.5683198 0.0037358177 184 39
-0.1291694 0.20217027 0.56486595 0.0036095567 194 41
-0.1252487 0.20026989 0.56027865 0.0031332115 215 45
-0.12191676 0.19924779 0.55811822 0.0028372472 265 56
-0.11860207 0.19820838 0.55588245 0.0023961931 312 66
-0.11573804 0.19789144 0.55564845 0.0024284075 323 68
-0.11287248 0.19755685 0.55534315 0.0023242605 329 69
-0.10984021 0.19690721 0.55412954 0.0021845172 359 76
-0.10696036 0.19650528 0.55359036 0.0020279575 397 84
-0.10369071 0.19534856 0.55090082 0.0018336411 458 97
-0.10085589 0.19497201 0.5503881 0.0015978029 585 124
-0.098158099 0.19484723 0.55056584 0.0015874323 582 123
-0.095213249 0.19421168 0.54927975 0.0015762286 618 131
-0.092439793 0.19389956 0.54888779 0.001426682 692 146
-0.08964514 0.19352348 0.54829496 0.0012815949 811 172
-0.086962216 0.19337326 0.54832321 0.0012687545 844 179
-0.084209971 0.19305478 0.54785591 0.0011658254 958 203
-0.081411868 0.19260746 0.54700416 0.0011500228 996 211
-0.078718461 0.19238649 0.54677695 0.0011155371 1020 216
-0.076008022 0.19210732 0.54636699 0.0010775236 1082 229
-0.073328346 0.19188894 0.54611278 0.0010436312 1156 245
-0.070798658 0.19206145 0.54695517 0.001001936 1252 255
-0.068095997 0.19175997 0.54643184 0.00096419925 1382 255
-0.065499045 0.19174412 0.54670662 0.00093900744 1363 255
-0.062870979 0.19163211 0.54669219 0.00099823566 1268 255
-0.060353875 0.19186319 0.54764205 0.0010583083 1123 238
-0.057872415 0.19223344 0.54897547 0.0012434408 865 183
-0.055579867 0.19329552 0.55227268 0.001534013 638 135
-0.053104248 0.19379422 0.55394816 0.0018360246 471 99
-0.050728891 0.19472957 0.55685985 0.0022384077 381 80
-0.048384499 0.19589262 0.56041151 0.002530308 291 61
-0.046466079 0.1990148 0.5695591 0.0033911129 204 43
-0.04478934 0.20361929 0.58294362 0.0040563168 169 35
-0.042476323 0.20574464 0.58922386 0.0052365591 127 26
-0.040834378 0.21164595 0.60631156 0.0057790582 104 22
-0.038301982 0.21347338 0.61172181 0.0065010507 88 18
-0.035682883 0.21507594 0.61647683 0.0071575316 87 18
-0.033240449 0.21812195 0.62535912 0.0075666448 77 16
-0.030387819 0.21880719 0.62746221 0.0079597691 74 15
-0.027525043 0.21955924 0.62974429 0.0088416478 74 15
-0.024746949 0.22125018 0.63470739 0.0081945909 68 14
-0.021986483 0.2235851 0.64150673 0.00788566 73 15
-0.018763866 0.22121558 0.63479483 0.0086720735 73 15
-0.015611305 0.21893033 0.62831008 0.0078181839 71 15
-0.012523385 0.21669477 0.62195396 0.0081242919 77 16
-0.0092678778 0.20930976 0.60080302 0.0069615943 83 17
-0.0063657234 0.2069222 0.59398288 0.0063015893 98 20
-0.0035298925 0.2046386 0.58744848 0.0055691786 112 23
-0.00075371639 0.20180093 0.57931155 0.0056769578 118 25
0.0019548016 0.19988772 0.57381672 0.0048417719 125 26
0.004546748 0.19519012 0.56031758 0.0031892112 227 48
0.0068976399 0.18739313 0.53791136 0.0014546589 665 141
0.0095520755 0.18981589 0.5448308 0.0013803056 721 152
nan nan nan 0 406 86
0.013559756 0.17529993 0.50307006 0.0015839111 591 125
0.016279165 0.17915536 0.51406974 0.0020046348 410 86
0.01872151 0.17935809 0.51457632 0.0023737503 340 72
0.021314146 0.18078913 0.51859552 0.0025722878 288 61
0.024248673 0.18452752 0.52921981 0.0027683091 257 54
0.027920647 0.19265719 0.55242014 0.0031521404 222 47
0.030765211 0.1941777 0.55665183 0.0035981017 184 39
nan nan nan 0 168 35
nan nan nan 0 140 29
nan nan nan 0 197 41
0.041440014 0.1950153 0.55841523 0.0023748546 324 68
0.044733115 0.19792481 0.56655252 0.0036357928 182 38
0.049627151 0.20718975 0.59285641 0.0054789381 110 23
0.05255723 0.20770362 0.59409523 0.0061356551 105 22
0.055677488 0.20887884 0.59720951 0.0067588231 97 20
0.059541713 0.21259703 0.60757369 0.0075389156 87 18
0.063266292 0.2154972 0.61557627 0.0074019441 80 16
0.066793106 0.21749814 0.62098801 0.0072509306 80 16
0.070691437 0.22048919 0.62920302 0.0078218421 82 17
0.074094862 0.22175708 0.6324777 0.0083602127 75 15
0.077642038 0.22333992 0.6366291 0.007727012 76 16
0.081182517 0.22478572 0.64036721 0.0076090423 79 16
0.083792277 0.22364312 0.63671309 0.0078396471 72 15
0.086625323 0.22315527 0.63490778 0.0075864978 74 15
0.089682743 0.22325884 0.63476723 0.0080009531 75 15
0.092380114 0.22248855 0.6321246 0.0078388816 79 16
0.094877757 0.2213009 0.62828106 0.0073572542 79 16
0.097026542 0.21939702 0.62239152 0.0070251343 85 18
0.099061839 0.21735707 0.61610526 0.00604467 98 20
0.10073955 0.21467255 0.60798341 0.0057065301 106 22
0.10243221 0.21216933 0.6003679 0.0047181156 131 27
0.10535885 0.21228881 0.60015976 0.0045918161 129 27
0.10758637 0.21103062 0.59603977 0.0041767908 155 32
0.10842162 0.20717695 0.58458304 0.0035190936 186 39
0.10974736 0.20443101 0.57625026 0.0027751611 260 55
0.11195412 0.20342079 0.57280093 0.0025142974 296 62
0.11514369 0.20420188 0.57437634 0.0026559306 273 57
0.11787252 0.20414847 0.57358199 0.0026882696 295 62
0.12018432 0.20339172 0.57079381 0.0022192176 362 76
0.1232472 0.2039115 0.57156861 0.0022045909 351 74
0.126252 0.20431451 0.57199264 0.0024686323 320 67
0.1294359 0.20498392 0.57313854 0.002502695 290 61
0.13242938 0.20533004 0.57335675 0.0027480293 284 60
0.13526912 0.20542851 0.57286185 0.0027035819 286 60
0.13800557 0.20536929 0.5719074 0.0023421189 343 72
0.14085627 0.20547901 0.57140428 0.0021133355 381 80
0.14326872 0.20495763 0.56912917 0.0019004376 473 100
0.14578883 0.20460705 0.56731391 0.0017995081 519 110
0.1498614 0.20640779 0.57144064 0.002588205 294 62
0.15313901 0.20706782 0.57238269 0.0030254622 255 54
0.15666497 0.20803393 0.57414871 0.0027795334 254 53
0.15952067 0.20809165 0.57338929 0.0029390769 234 49
0.1620649 0.20774807 0.571513 0.0029397821 237 50
0.16496466 0.2078642 0.57089192 0.003124462 217 46
0.16882354 0.20916474 0.5735085 0.0032362456 209 44
0.1719085 0.20947939 0.57340789 0.0034944804 200 42
0.17481628 0.20957144 0.57269204 0.0037987479 166 35
0.1789265 0.21107905 0.57583535 0.0043610255 149 31
0.18378779 0.2134115 0.58121264 0.0042888317 146 30
0.18629521 0.21298084 0.57906038 0.0047586369 135 28
0.19110058 0.21515036 0.58397776 0.0046811728 130 27
0.19209582 0.21302958 0.57726133 0.004751794 142 30
0.19502638 0.21308596 0.57646942 0.0043237563 149 31
0.19904818 0.21431559 0.57886535 0.0044167517 142 30
0.20385389 0.21634193 0.58342308 0.0047734031 131 27
0.20831446 0.21794984 0.58686566 0.0050727376 121 25
0.21376188 0.22053102 0.59294516 0.0057122642 106 22
0.2173202 0.22111911 0.59369153 0.0057227416 100 21
0.21840413 0.21920769 0.58777404 0.0059796735 102 21
0.2200284 0.21788256 0.5834865 0.0060984963 102 21
0.22337919 0.21827954 0.58386469 0.0073744664 90 19
0.22732726 0.21924214 0.58580655 0.0085574249 70 14
0.2289232 0.21794075 0.58175868 0.0095779188 65 13
0.2321765 0.2182302 0.58202183 0.0095495479 60 12
0.23734887 0.22029355 0.58707654 0.0093079275 59 12
0.24192308 0.22175749 0.5905959 0.0090046041 65 13
0.24418674 0.22109358 0.5885182 0.0083271135 67 14
0.24603018 0.22006984 0.58555818 0.0065007838 106 22
0.23122092 0.20435289 0.54359013 0.0020484591 388 82
0.23484208 0.20510349 0.54550844 0.0015616918 625 132
nan nan nan 0 571 121
nan nan nan 0 381 80
nan nan nan 0 2020 255
nan nan nan 0 2719 255
nan nan nan 0 2736 255
nan nan nan 0 2713 255
nan nan nan 0 2645 255
nan nan nan 0 2367 255
0.24546023 0.19379106 0.51778603 0.00095452642 1364 255
0.24778065 0.19355783 0.51774985 0.0013818031 759 161
nan nan nan 0 344 72
0.29546446 0.2260343 0.6062023 0.0033151291 223 47
0.29755795 0.22530648 0.60513932 0.0027428982 296 62
0.26366788 0.19762315 0.53162229 0.0011070214 959 203
0.25820482 0.19158784 0.51625115 0.0012235582 918 194
0.25983658 0.1908845 0.51526862 0.0015273987 641 135
0.26779288 0.19479546 0.5268079 0.0034964206 200 42
0.26840711 0.19334161 0.52389956 0.0036856069 185 39
0.26927513 0.19209681 0.52159011 0.0023843918 327 69
0.26280338 0.18568978 0.50526494 0.001318131 817 173
-0.29282704 0.18567134 0.50955141 0.0021053262 383 81
-0.28561312 0.18264145 0.50225097 0.0021279932 377 79
-0.28907371 0.18644419 0.51305765 0.0045620133 134 28
-0.29357371 0.19098905 0.5253576 0.0040322561 159 33
-0.28871778 0.18947363 0.52057147 0.0026803478 280 59
-0.27060184 0.17915259 0.49136421 0.0019201451 494 104
-0.26818234 0.17913212 0.49028829 0.0013522161 751 159
nan nan nan 0 254 53
nan nan nan 0 104 22
nan nan nan 0 183 38
nan nan nan 0 210 44
nan nan nan 0 56 11
nan nan nan 0 37 7
-0.27637252 0.1968773 0.5300343 0.0034490416 200 42
-0.27051765 0.19455452 0.52262747 0.0017976883 509 107
-0.26761064 0.19432743 0.52090698 0.0019102922 432 91
-0.2657643 0.19487359 0.52130157 0.0030501825 232 49
-0.27505571 0.20367803 0.5437839 0.0029976456 261 55
-0.27589139 0.2063342 0.54984146 0.0024364425 307 65
-0.2626588 0.19841649 0.52779794 0.0023179299 335 71
-0.26621324 0.20314786 0.53946984 0.0037928773 165 35
-0.2625722 0.20242916 0.53670502 0.0025249806 263 55
-0.25895214 0.20171189 0.534006 0.0024275647 319 67
-0.25502336 0.20073654 0.53068781 0.0042241905 159 33
-0.26988608 0.21468875 0.56684893 0.0096464287 60 12
-0.26823112 0.21565983 0.56875014 0.0068425247 84 17
nan nan nan 0 188 39
-0.24829735 0.20400715 0.53695548 0.0022740229 324 68
-0.24719243 0.20534907 0.54005063 0.0018755551 432 91
-0.23979555 0.20143561 0.52939594 0.0012553231 831 176
-0.23697202 0.20131877 0.52879328 0.0015670807 567 120
-0.2367503 0.20343493 0.53412139 0.002313216 306 64
-0.22894837 0.19901115 0.52234864 0.0018893033 447 94
-0.23475912 0.20645501 0.54179305 0.0025525484 298 63
-0.23224121 0.20666417 0.54231834 0.0017517458 502 106
-0.22093496 0.19896393 0.52215642 0.00091689324 1397 255
-0.21818765 0.19887801 0.52204221 0.0012605287 838 177
-0.22141267 0.2043007 0.53645837 0.0026330804 285 60
-0.22199091 0.20738585 0.54481125 0.0029989895 262 55
-0.21721067 0.20547977 0.54011822 0.0016713396 555 117
-0.2110565 0.20220865 0.53189117 0.00091377198 1529 255
nan nan nan 0 1246 255
nan nan nan 0 2695 255
nan nan nan 0 2814 255
nan nan nan 0 2895 255
nan nan nan 0 2895 255
nan nan nan 0 2843 255
nan nan nan 0 2716 255
nan nan nan 0 2735 255
nan nan nan 0 2870 255
nan nan nan 0 2784 255
nan nan nan 0 1284 255
-0.17911607 0.20267841 0.54129517 0.0010267482 1266 255
-0.17589948 0.20208786 0.54059225 0.0015143655 625 132
-0.18691699 0.21808667 0.58434647 0.0053187683 113 23
-0.18722472 0.22189794 0.59554183 0.0077917124 74 15
-0.1876951 0.22602752 0.60763323 0.0094544906 61 12
-0.18397291 0.22516069 0.60631037 0.010413106 61 12
-0.17875998 0.22241026 0.59989917 0.0096798884 51 10
-0.17422538 0.22042531 0.59552878 0.010517037 55 11
-0.17055771 0.21948788 0.59397006 0.0094028451 61 12
-0.16725451 0.21899492 0.59360015 0.0077135707 77 16
-0.16387929 0.21838845 0.59290814 0.0075584464 88 18
-0.15986098 0.21688756 0.5897671 0.0068520871 100 21
-0.15787138 0.21813448 0.59408373 0.0065679164 93 19
-0.15242851 0.21456717 0.58526492 0.0056584771 107 22
-0.14698315 0.21085981 0.5760181 0.0047276639 127 26
-0.14343961 0.20978937 0.57393909 0.0042425897 148 31
-0.13938065 0.20790754 0.56961125 0.0038560326 182 38
-0.13590232 0.20683302 0.56746584 0.0035902839 183 38
-0.13327257 0.2070322 0.56879336 0.0038503502 176 37
-0.1302451 0.20660888 0.56839097 0.0039894395 160 33
-0.12539665 0.2032162 0.55978686 0.0034818642 194 41
-0.1225414 0.20297518 0.55983222 0.0031560024 223 47
-0.11929755 0.20206505 0.55800873 0.0030561767 242 51
-0.11576273 0.20060863 0.55464959 0.0027071589 298 63
-0.1126956 0.19991298 0.55336732 0.0023651505 321 68
-0.10996246 0.19979042 0.55364949 0.0023167806 347 73
-0.10700255 0.19923954 0.55272347 0.002131951 375 79
-0.10400192 0.19858284 0.55148119 0.0019259879 434 92
-0.10105401 0.19799513 0.55040801 0.0017262825 532 112
-0.097756833 0.1966732 0.54726988 0.0014882291 648 137
-0.095194422 0.1967974 0.54813409 0.0015342645 664 140
-0.09251795 0.19668615 0.54832423 0.0014122264 697 147
-0.089715913 0.1962937 0.54771125 0.0013549348 745 158
-0.086952992 0.19596581 0.54725885 0.0012846473 858 182
-0.084168985 0.19556862 0.54659396 0.0010929554 1107 234
-0.081376418 0.19512548 0.54578149 0.0010993652 1068 226
-0.078751937 0.19506939 0.54603356 0.0011257981 1015 215
-0.07619191 0.19517459 0.54672098 0.0011331334 996 211
-0.073522404 0.19499694 0.54659933 0.0011378037 1005 213
-0.07112103 0.19554341 0.54849201 0.0011101802 1064 225
-0.068272308 0.19485472 0.54690439 0.0010761109 1077 228
-0.065499216 0.19433592 0.54577595 0.0010925615 1073 227
-0.06296666 0.19451749 0.54659849 0.0011321054 993 210
-0.060524158 0.19500476 0.54826641 0.001209154 883 187
-0.058108468 0.19562608 0.55029809 0.0014159428 704 149
-0.055643462 0.19613194 0.55199218 0.0015226605 611 129
-0.053349633 0.19732086 0.55559659 0.0020959973 410 86
-0.051060926 0.19865303 0.55959338 0.0025399735 298 63
-0.048671205 0.19971648 0.56282228 0.002969976 237 50
-0.046728697 0.20284435 0.57185972 0.0036812201 177 37
-0.044951741 0.20711938 0.58412528 0.0044129295 158 33
-0.042823061 0.21022737 0.59309304 0.005114594 126 26
-0.040596396 0.21325609 0.60182893 0.0062218509 107 22
-0.03829034 0.21629259 0.61057824 0.0063416073 97 20
-0.035697151 0.21806972 0.61576253 0.0076897535 83 17
-0.033138976 0.22039488 0.62248343 0.0077819224 76 16
-0.030336784 0.22139183 0.62544125 0.0082432637 69 14
-0.027709467 0.22401749 0.63298893 0.0082923286 73 15
-0.024857728 0.22524406 0.63657171 0.0081013516 70 14
-0.021735333 0.22401823 0.63321012 0.008246772 71 15
-0.018610891 0.22237732 0.62866056 0.0076854364 75 15
-0.015427772 0.21928042 0.61997986 0.0074636713 80 16
-0.012337239 0.21635886 0.61178011 0.0070514129 82 17
-0.0093408544 0.21380886 0.604617 0.0074378089 89 18
-0.0063159596 0.2080792 0.58844811 0.0058514257 104 22
-0.0034920976 0.20518349 0.58028018 0.005354105 113 23
-0.00075343548 0.20445195 0.57822061 0.0051036435 122 25
0.0019507685 0.20217115 0.57176757 0.0047098598 131 27
0.004481731 0.19499913 0.55147022 0.0027555914 258 54
0.006919316 0.19052251 0.53878528 0.0014306459 685 145
0.0096504595 0.19436266 0.54960835 0.0015354458 604 128
0.01228787 0.19508873 0.55161327 0.0018744725 475 100
0.01347926 0.17661431 0.49932292 0.0014582465 685 145
0.015924618 0.17762198 0.50210679 0.0018412874 463 98
0.018545644 0.18007438 0.50896275 0.0020972646 381 80
0.021140469 0.18173932 0.51358032 0.002579184 313 66
0.023965959 0.18484084 0.52224392 0.0027867055 273 57
0.0267596 0.18714118 0.52862954 0.0030538836 229 48
0.029897848 0.1912535 0.54011762 0.0034963123 195 41
0.032783478 0.19323047 0.54555911 0.0041855811 179 37
nan nan nan 0 143 30
nan nan nan 0 164 34
0.041706212 0.1989205 0.56110996 0.0025880437 299 63
0.044341266 0.19884247 0.56069243 0.0032725246 220 46
0.049312405 0.20865804 0.58814895 0.005851869 116 24
0.052517802 0.21035272 0.59268826 0.0065491791 102 21
0.055485349 0.21097116 0.59417796 0.0061206822 97 20
0.058585625 0.21201026 0.59683532 0.006628654 91 19
0.062799156 0.21679688 0.61001933 0.0069970344 84 17
0.066429839 0.21923865 0.61657977 0.0072737448 84 17
0.06995625 0.22114494 0.62161165 0.0072260676 85 18
0.074027218 0.22454885 0.63082802 0.0069585205 82 17
0.077348888 0.22550359 0.63313973 0.007946454 79 16
0.080037385 0.22460997 0.6302442 0.0078294883 76 16
0.083133839 0.22488441 0.6306091 0.0076619354 73 15
0.086420663 0.22563677 0.632294 0.0077728671 75 15
0.089309312 0.22533388 0.63100225 0.0078410087 80 16
0.092415452 0.2255816 0.63123357 0.0071216309 84 17
0.09526623 0.22521006 0.62971282 0.0074068457 84 17
0.097549498 0.22356057 0.62460381 0.00701772 88 18
0.10054571 0.22359437 0.62418145 0.0065851784 93 19
0.10178814 0.21983849 0.6131689 0.0061075212 102 21
0.10432313 0.21900633 0.61030209 0.0059619858 109 23
0.10576164 0.21598035 0.60131168 0.0055621653 108 22
0.10816058 0.21502411 0.59807384 0.0052366359 125 26
0.10890655 0.21091603 0.58606315 0.003861998 161 34
0.11025961 0.20816089 0.57781106 0.0033698927 195 41
0.11353335 0.20907813 0.5797379 0.0033553366 214 45
0.11658457 0.20955144 0.58040971 0.003125506 216 45
0.11839347 0.20782188 0.57496381 0.0029943481 251 53
0.12098889 0.20752047 0.57345545 0.0026403135 282 59
0.12348813 0.20707126 0.57152128 0.0025561594 290 61
0.12682836 0.20802106 0.57342672 0.0026947097 272 57
0.12975131 0.20826046 0.57335007 0.0029632016 257 54
0.13248746 0.20819627 0.57241744 0.0029337353 257 54
0.13533564 0.20830715 0.57194698 0.0026776365 268 56
0.13832007 0.2086191 0.57200813 0.0026041931 291 61
0.14105301 0.20854686 0.57099688 0.0022538912 346 73
0.14399242 0.20877683 0.57079494 0.0019947099 413 87
0.14699113 0.20908242 0.57078081 0.0018438743 450 95
0.15053631 0.21013942 0.57279658 0.0025619338 293 62
0.15400623 0.2110547 0.57440311 0.0028138522 249 52
0.15682849 0.21106547 0.57353055 0.0029032764 244 51
0.15966918 0.21110025 0.57271093 0.0031159725 215 45
0.16255014 0.2111861 0.57201892 0.0031005817 221 46
0.16560429 0.21149026 0.57190812 0.0032263452 206 43
0.16821857 0.21123183 0.57026947 0.0032408047 207 43
0.17160271 0.21193273 0.57121462 0.0035055645 194 41
0.17506446 0.21270524 0.5723446 0.003883109 161 34
0.18161371 0.21714462 0.58331949 0.0047240839 139 29
0.1851196 0.21786305 0.58427995 0.0049805557 128 27
0.18838304 0.21827835 0.58443022 0.0053420137 123 26
0.19268996 0.21987163 0.58773702 0.0051880623 116 24
0.19611244 0.2204231 0.588265 0.0053345012 119 25
0.19915634 0.22053908 0.58764702 0.0052420557 115 24
0.20234962 0.22081469 0.58747613 0.0053943414 113 23
0.20594136 0.22151096 0.58844823 0.0058587343 102 21
0.21058737 0.22330548 0.59236008 0.0066850986 93 19
0.21466723 0.22445802 0.59459478 0.0065374225 98 20
0.21713924 0.22392081 0.59239221 0.0059538228 98 20
0.21662572 0.22036111 0.58225268 0.0055434075 107 22
0.21913157 0.21992706 0.58043367 0.0055175791 111 23
0.22240397 0.22026363 0.58070171 0.0059031406 99 21
0.22678596 0.22167598 0.58385801 0.0073717996 75 15
0.23014358 0.22206362 0.58437127 0.0080885254 72 15
0.23298424 0.22194895 0.58362567 0.0089786658 66 14
0.23631606 0.22229916 0.58416855 0.007997999 69 14
0.24002612 0.22299212 0.58567965 0.0080257887 69 14
0.24303091 0.22302087 0.58551639 0.0077599213 78 16
0.24430102 0.22147636 0.58129692 0.0052445703 116 24
0.23154792 0.20740752 0.54428601 0.0018342667 490 103
0.23393603 0.20707335 0.54339397 0.0013708813 705 149
nan nan nan 0 532 112
nan nan nan 0 350 74
nan nan nan 0 853 180
nan nan nan 0 2346 255
nan nan nan 0 2702 255
nan nan nan 0 2737 255
nan nan nan 0 2572 255
nan nan nan 0 2139 255
0.24569726 0.19659971 0.51874661 0.0010241716 1133 240
0.25012723 0.19803151 0.52315992 0.0015238455 633 134
0.2535899 0.19867559 0.52555805 0.0022160972 385 81
0.29188135 0.22631088 0.59952092 0.0034707161 214 45
0.29706714 0.22797471 0.60485816 0.0031828836 239 50
0.2631689 0.19991486 0.5312801 0.0012483351 843 178
0.26273465 0.1975836 0.5259968 0.0013396944 766 162
0.260003 0.19358812 0.51630348 0.0014403398 701 148
0.26927158 0.1985182 0.53046858 0.0028774468 257 54
0.26555055 0.19386905 0.51908475 0.0033406925 205 43
0.26586473 0.19222713 0.51576304 0.0019990464 377 79
0.26988322 0.1932693 0.51968247 0.0017652799 514 109
-0.29266369 0.18804216 0.50821531 0.0018728322 468 99
-0.28896874 0.18725124 0.50757766 0.0018504213 442 93
-0.28437757 0.18586102 0.50457108 0.0028384191 273 57
-0.27292961 0.17992635 0.48859218 0.001642951 586 124
-0.27494258 0.1828395 0.49615896 0.0014164844 722 153
-0.26852512 0.18014823 0.48817831 0.0012030861 917 194
-0.26733047 0.18094411 0.48942706 0.0014781106 669 141
nan nan nan 0 119 25
-0.28498396 0.19639136 0.52884769 0.0048028845 128 27
-0.28109416 0.19548343 0.52514637 0.0025960228 293 62
-0.27122992 0.19036552 0.51016581 0.0030069232 233 49
-0.27298898 0.19338617 0.5170207 0.0056655323 121 25
nan nan nan 0 67 14
-0.28140146 0.2031327 0.54055315 0.003675675 174 36
-0.27056655 0.19718443 0.52355033 0.0015399579 615 130
-0.26948389 0.19829705 0.52536368 0.0018676156 453 96
-0.27459836 0.20403613 0.53943807 0.0033754089 216 45
-0.27420563 0.20575604 0.54289091 0.0026105447 313 66
nan nan nan 0 220 46
-0.26257548 0.20099843 0.52834105 0.0025884151 299 63
-0.25808114 0.19956829 0.52366364 0.0032122445 229 48
-0.26219338 0.20483246 0.53658682 0.0030363447 210 44
-0.25765854 0.20338047 0.53195322 0.0024802219 315 66
-0.25067693 0.19994637 0.52220935 0.0025240188 281 59
-0.25180835 0.20297927 0.529414 0.0043455609 155 32
-0.26692206 0.21746892 0.56650072 0.0079976264 69 14
-0.2647689 0.21805239 0.56737745 0.0084673679 69 14
-0.25994235 0.21642284 0.56256419 0.0047333073 121 25
nan nan nan 0 382 81
-0.23456569 0.19966978 0.51814419 0.0011669344 1008 213
-0.23387748 0.2013392 0.5221321 0.001755113 498 105
-0.23412056 0.20385778 0.52838063 0.0023224903 341 72
-0.22978157 0.20239869 0.52438378 0.0018344319 458 97
-0.23399106 0.20852345 0.54009902 0.0021910572 364 77
-0.22892281 0.20642754 0.53458661 0.0013499355 755 160
-0.21950138 0.20030871 0.51872522 0.00099513668 1357 255
-0.21693657 0.20037431 0.51894522 0.0015233475 706 149
-0.22096804 0.20660914 0.53521103 0.0028628556 280 59
-0.22081645 0.20903939 0.54169261 0.0027730672 300 63
-0.21429268 0.20542248 0.5325672 0.0014086053 730 154
-0.21348466 0.20726234 0.53764927 0.0010237851 1266 255
nan nan nan 0 1161 246
nan nan nan 0 2725 255
nan nan nan 0 2843 255
nan nan nan 0 2894 255
nan nan nan 0 2880 255
nan nan nan 0 2841 255
nan nan nan 0 2734 255
nan nan nan 0 2776 255
nan nan nan 0 2826 255
nan nan nan 0 2723 255
nan nan nan 0 1374 255
-0.1784513 0.20461871 0.53831899 0.00093064929 1442 255
-0.17667179 0.20568168 0.54196036 0.0016064475 585 124
-0.18590842 0.21980226 0.58008695 0.0050457297 124 26
-0.1845033 0.22158837 0.58574069 0.0062423507 93 19
-0.18604676 0.22702998 0.6010977 0.0073790257 84 17
-0.18274857 0.22664458 0.60105479 0.008082333 72 15
-0.17785192 0.22423109 0.59562439 0.0087722586 68 14
-0.17384797 0.22288068 0.5930016 0.0086476803 68 14
-0.17052434 0.22237106 0.59260494 0.0088719064 65 13
-0.16664124 0.22110136 0.59017003 0.0074939025 89 18
-0.16266598 0.21966206 0.58726358 0.0062790201 107 22
-0.15828392 0.2176114 0.58269852 0.0052723526 117 24
-0.15479308 0.21673308 0.58124936 0.0057852147 107 22
-0.15162136 0.21627691 0.58091432 0.0058581373 104 22
-0.14956179 0.21742006 0.58486384 0.0056655873 107 22
-0.1442896 0.2138465 0.57610065 0.0049339221 121 25
-0.14111014 0.21329403 0.57544386 0.0050724419 143 30
-0.13825919 0.21322577 0.57607424 0.0042067957 153 32
-0.13367134 0.21042053 0.56928182 0.0038638422 169 35
-0.13040289 0.20961748 0.56787485 0.0039718142 160 33
-0.12669201 0.20805317 0.56437874 0.0036338719 181 38
-0.12302376 0.20649132 0.56085956 0.0034987007 202 42
-0.11990101 0.20579518 0.55966532 0.002803046 249 52
-0.11537669 0.20260568 0.55165839 0.0024103625 315 66
-0.11248756 0.2022047 0.55121356 0.0022234672 377 79
-0.1097867 0.20213087 0.55164015 0.0022182078 370 78
-0.10684269 0.20159461 0.55078405 0.001992268 426 90
-0.10404916 0.20132218 0.55062765 0.0019536791 423 89
-0.10101765 0.20056307 0.54911816 0.0017147427 514 109
-0.097795665 0.19937485 0.54641014 0.0015798958 610 129
-0.095139638 0.19930679 0.54675019 0.0014521249 694 147
-0.092506222 0.19928354 0.5471949 0.001441621 710 150
-0.08976125 0.19901165 0.54693818 0.0013586372 752 159
-0.086951375 0.19857517 0.54620951 0.0011898052 934 198
-0.083730251 0.19714333 0.54272127 0.00095782621 1378 255
-0.081276849 0.19748536 0.54409671 0.00083932537 1624 255
-0.078852125 0.19792196 0.54571748 0.0010531397 1146 243
-0.076339625 0.19816054 0.54677689 0.0011407419 1016 215
-0.073523834 0.1976009 0.54561669 0.0011663949 968 205
-0.070996992 0.19780521 0.5465492 0.0011963479 935 198
-0.068476565 0.1980437 0.54756081 0.0012424869 894 189
-0.065504141 0.19694206 0.54485005 0.0012041897 906 192
-0.062970892 0.19712448 0.54567468 0.001254581 847 179
-0.060632605 0.19795908 0.54829127 0.0013873025 720 152
-0.058209732 0.19858004 0.55030334 0.0015683684 585 124
-0.055801477 0.19931161 0.55260921 0.001713819 509 107
-0.053628571 0.20099741 0.55754936 0.0023020352 351 74
-0.05116092 0.20169611 0.55974007 0.0025324919 291 61
-0.048924211 0.20343156 0.56479651 0.0032315915 206 43
-0.047095526 0.20716274 0.57538587 0.0038657319 165 35
-0.044942386 0.20983744 0.58303374 0.00437081 146 30
-0.043075297 0.21428536 0.59560138 0.0052015539 118 25
-0.040909987 0.217769 0.6054821 0.0059794057 101 21
-0.038343798 0.2194827 0.61043191 0.0073987888 86 18
-0.035808064 0.22166409 0.61667156 0.0076171434 78 16
-0.033125684 0.2232441 0.62122673 0.008472424 73 15
-0.030480802 0.22540896 0.62739778 0.0084084393 70 14
-0.027608922 0.22618085 0.62967944 0.0080428589 73 15
-0.024684764 0.22665934 0.63113081 0.0086724451 69 14
-0.021659106 0.22620922 0.62998283 0.0088251857 70 14
-0.018528281 0.22434229 0.62487429 0.0080412775 77 16
-0.015305304 0.22044045 0.61408204 0.0070105353 86 18
-0.012321552 0.21896505 0.61003417 0.00687062 86 18
-0.0093682492 0.21729524 0.6054309 0.0061138151 97 20
-0.0063232989 0.21109881 0.58820093 0.005638361 106 22
-0.0035034751 0.20859687 0.5812515 0.0056104898 115 24
-0.00074869004 0.20587325 0.5736717 0.0047770408 129 27
0.0019315248 0.20284599 0.56523347 0.0043681907 147 31
0.0044572414 0.19651955 0.54759049 0.0026254384 282 59
0.0069084768 0.19276053 0.53709084 0.0014579326 678 143
nan nan nan 0 470 99
nan nan nan 0 526 111
0.013491613 0.17913336 0.49898645 0.0014022962 712 151
0.015788065 0.17844701 0.49700841 0.0018278586 504 106
0.01820397 0.17911373 0.49878797 0.0021351187 409 86
0.020837476 0.18152319 0.50540823 0.0025062731 332 70
0.023425799 0.18308394 0.50965232 0.0026694161 273 57
0.026123356 0.18512771 0.51522738 0.0030649381 235 49
0.029748412 0.19283502 0.53654653 0.0034904433 191 40
0.032418903 0.19362952 0.5386132 0.0037648035 176 37
nan nan nan 0 152 32
nan nan nan 0 143 30
nan nan nan 0 242 51
0.044422995 0.20186527 0.56079054 0.0026113349 280 59
0.047960501 0.20564367 0.57106626 0.0042225188 152 32
0.052436754 0.21282864 0.59077543 0.0059637511 107 22
0.055426754 0.2135585 0.59254235 0.0063073728 97 20
0.058525048 0.21461511 0.59519839 0.0069605689 97 20
0.062320426 0.21801296 0.60432601 0.006619785 91 19
0.065960132 0.22059116 0.6111573 0.0069942786 88 18
0.069853581 0.22376485 0.61961323 0.0069433535 85 18
0.073171727 0.22491343 0.62243819 0.0079236878 75 15
0.076126009 0.22489777 0.62202191 0.0076789064 81 17
0.079596817 0.22635216 0.62565124 0.0077089719 79 16
0.083084673 0.22774829 0.62909651 0.0073782275 82 17
0.086694166 0.22936906 0.63313806 0.0076990561 79 16
0.090105906 0.2303752 0.63545918 0.0075042662 77 16
0.092530027 0.22887297 0.63084298 0.0080283601 82 17
0.095433205 0.22861303 0.62963516 0.0069219852 84 17
0.098575197 0.22892359 0.62997866 0.0066539645 89 18
0.10027811 0.22597283 0.62133354 0.0069186869 94 19
0.10279461 0.22497258 0.61804068 0.0068012457 98 20
0.10551399 0.22445993 0.61607087 0.0064845206 96 20
0.107067 0.22156154 0.60754144 0.0060022227 96 20
0.10864481 0.21886678 0.59956503 0.0052571353 118 25
0.11080611 0.21745633 0.59509754 0.0045283753 135 28
0.11185177 0.21398251 0.58497727 0.0040182564 171 36
0.11514494 0.21487342 0.58677649 0.003615415 174 36
0.11739329 0.21381864 0.58324295 0.0034609267 191 40
0.11880931 0.21133269 0.5757966 0.002997251 232 49
0.12124931 0.21074022 0.57349938 0.0027902208 263 55
0.12418908 0.21102345 0.57356662 0.0027507001 262 55
0.12721027 0.21142963 0.57394636 0.0031633067 226 47
0.13040712 0.21210413 0.5750317 0.0029562546 229 48
0.13314389 0.2120177 0.57403314 0.0030193417 241 51
0.13563633 0.21155374 0.57199621 0.0028698035 240 50
0.13868661 0.21196106 0.57229728 0.0027635747 255 54
0.14220178 0.21304877 0.5744127 0.0028743688 248 52
0.14522195 0.21336716 0.57443202 0.0025632193 279 59
0.14827813 0.2137254 0.5745405 0.0027914604 283 60
0.15128286 0.2139975 0.57440037 0.0029974971 251 53
0.15454552 0.21461786 0.57517827 0.003233748 239 50
0.15692656 0.21401361 0.57266241 0.0035653582 205 43
0.15989211 0.21421379 0.57229078 0.0037043714 184 39
0.16293289 0.214506 0.57215464 0.0037296305 194 41
0.16537088 0.21400826 0.56990612 0.003441609 196 41
0.16849244 0.21439694 0.57001472 0.0035044691 187 39
0.17151938 0.21465442 0.56977028 0.0036078049 187 39
0.17489305 0.21533045 0.57063413 0.003865341 170 36
0.17976435 0.21779941 0.57624006 0.0044761417 138 29
0.18423758 0.21971621 0.58037359 0.0047887042 127 26
0.18854299 0.22137669 0.58382595 0.0049364809 125 26
0.19239435 0.22246161 0.58576351 0.005138461 118 25
0.1968579 0.22421131 0.58945853 0.0057529323 105 22
0.20097239 0.22551768 0.59199834 0.0067014997 91 19
0.20544 0.22717644 0.59547871 0.0076119257 83 17
0.20947237 0.22831324 0.59761178 0.00724338 84 17
0.21245411 0.22828898 0.5967375 0.0074871238 82 17
0.21621032 0.22908598 0.59804761 0.0066806874 87 18
0.21746726 0.22724938 0.59253007 0.0065874378 96 20
0.21843229 0.22516167 0.58641827 0.0055184411 114 24
0.21900897 0.2227349 0.57948786 0.0054947161 108 22
0.22465822 0.225463 0.58602351 0.0055558216 104 22
0.22831251 0.2261439 0.58728844 0.0070960619 88 18
0.23105682 0.22591762 0.58625871 0.0072443741 80 16
0.23413296 0.22601736 0.58614022 0.007418429 77 16
0.23659754 0.22553164 0.58457118 0.0070874002 82 17
0.23977011 0.22572452 0.58483082 0.0074787997 79 16
0.24203712 0.22507057 0.58296776 0.007185176 79 16
0.24276365 0.22301725 0.57755381 0.0048091975 127 26
0.23079813 0.20949256 0.54250664 0.0016465586 535 113
0.23419918 0.21007054 0.5440504 0.0015426237 589 124
nan nan nan 0 527 111
nan nan nan 0 359 76
nan nan nan 0 552 117
nan nan nan 0 1550 255
nan nan nan 0 2653 255
nan nan nan 0 2649 255
nan nan nan 0 2422 255
nan nan nan 0 1960 255
0.24436098 0.1981377 0.51642382 0.0011135661 1048 222
0.25035951 0.20085844 0.52419257 0.0015979793 572 121
0.25361463 0.20134439 0.52619684 0.0023136369 339 71
nan nan nan 0 238 50
nan nan nan 0 193 40
nan nan nan 0 449 95
nan nan nan 0 637 135
0.26117814 0.19705607 0.51937616 0.0013109638 712 151
0.26280946 0.1963376 0.51850182 0.0018539324 463 98
0.26902938 0.19902779 0.52668482 0.0034322983 190 40
0.26458549 0.19385308 0.51408374 0.0025311878 292 61
0.26546898 0.19264309 0.51200086 0.0017993685 483 102
nan nan nan 0 433 91
nan nan nan 0 438 92
nan nan nan 0 382 81
-0.27222285 0.1818219 0.48730081 0.0012596579 815 172
-0.27504724 0.18531594 0.49662372 0.0015747023 552 117
-0.26821554 0.18230833 0.48810253 0.0013418333 760 161
nan nan nan 0 272 57
nan nan nan 0 176 37
-0.28251529 0.19725202 0.52511185 0.0048080911 143 30
-0.28130791 0.19820635 0.52642542 0.0030949204 223 47
-0.27853891 0.19806792 0.52480412 0.0034918261 219 46
-0.26467845 0.18996623 0.50213414 0.003159954 234 49
-0.26726723 0.19362922 0.51060426 0.0037875297 181 38
nan nan nan 0 133 28
-0.27097496 0.20008071 0.52519631 0.0015244733 617 130
-0.26925948 0.20073909 0.52576345 0.0015942146 563 119
-0.27011469 0.20334561 0.53145462 0.0021341071 389 82
nan nan nan 0 197 41
-0.28571048 0.21937619 0.57104123 0.0037119056 176 37
-0.26196402 0.20316912 0.52785248 0.0020367692 380 80
-0.25861278 0.2026109 0.5254513 0.002636442 276 58
-0.25968999 0.20554635 0.53214943 0.0040635108 172 36
-0.26078933 0.20856051 0.53907716 0.0040654112 164 34
-0.25944197 0.20966066 0.54109448 0.0031667543 211 44
-0.25628719 0.20930807 0.53941524 0.0034501341 197 41
-0.26991466 0.22280081 0.57342976 0.0083105452 70 14
-0.26642674 0.22230503 0.57145959 0.011775622 52 11
-0.26086232 0.2200467 0.56503052 0.0084112408 78 16
nan nan nan 0 290 61
-0.23225039 0.20030043 0.51336795 0.00091851735 1553 255
-0.23131399 0.20175268 0.5166989 0.0013593009 723 153
-0.23278406 0.20536126 0.52560586 0.00216924 361 76
-0.23157127 0.2066592 0.52865571 0.0021865545 340 72
nan nan nan 0 335 71
-0.22241788 0.203201 0.5194667 0.0010569114 1176 249
-0.21922167 0.20268594 0.5180757 0.00099746359 1317 255
-0.22254092 0.2082556 0.53230184 0.001994529 394 83
-0.21981066 0.20823146 0.53229553 0.0024579391 318 67
-0.22095007 0.21191823 0.54184222 0.0022469268 369 78
nan nan nan 0 1120 237
-0.21762288 0.21406011 0.54776114 0.0010690541 1134 240
-0.22010809 0.21930636 0.56150925 0.00093072117 1517 255
nan nan nan 0 2747 255
nan nan nan 0 2871 255
nan nan nan 0 2895 255
nan nan nan 0 2894 255
nan nan nan 0 2854 255
nan nan nan 0 2728 255
nan nan nan 0 2794 255
nan nan nan 0 2825 255
nan nan nan 0 2620 255
nan nan nan 0 1732 255
nan nan nan 0 1479 255
-0.18373513 0.21671958 0.56260914 0.002132131 350 74
-0.18535446 0.222031 0.57727879 0.0048399512 133 28
-0.18611227 0.22646201 0.58971453 0.0060969247 108 22
-0.1832303 0.22653532 0.59083372 0.0064075566 96 20
-0.18021816 0.22644746 0.59154183 0.0072479998 80 16
-0.1768029 0.22584173 0.59090036 0.0074640978 76 16
-0.17422651 0.22630523 0.59305888 0.0074157212 79 16
-0.17087524 0.22576082 0.59257573 0.0073725651 76 16
-0.1669672 0.22444898 0.59006804 0.0063126092 93 19
-0.16209382 0.22176974 0.5839442 0.005055116 120 25
-0.15868555 0.22103436 0.58291751 0.0054371995 113 23
-0.15522984 0.22020458 0.58162653 0.0056735687 108 22
-0.1532405 0.22146283 0.58584177 0.0060899085 93 19
-0.15063533 0.2218622 0.58777934 0.0065657659 86 18
-0.14592125 0.2191105 0.58134621 0.0059016929 99 21
-0.14319846 0.21929887 0.58268881 0.0054360079 112 23
-0.13990065 0.21859637 0.5816468 0.0050314707 123 26
-0.13599537 0.21689597 0.57792407 0.0042332229 152 32
-0.13124892 0.21375366 0.57032442 0.0038223134 164 34
-0.12698568 0.21127953 0.56446993 0.0035188159 191 40
-0.12363328 0.21024504 0.56243163 0.0032215312 211 44
-0.12005959 0.20877899 0.55921215 0.0028835167 250 53
-0.11586513 0.20614076 0.5528211 0.0024680397 299 63
-0.11256148 0.20500009 0.55041552 0.0021588446 362 76
-0.10939657 0.20406295 0.54853147 0.0019530478 436 92
-0.10675667 0.20408291 0.54919893 0.0019456517 458 97
-0.10358225 0.20305605 0.54702789 0.0017007135 559 118
-0.10070291 0.20256911 0.54628873 0.0016353797 576 122
-0.09805581 0.20253575 0.54675293 0.0014694057 679 144
-0.095271721 0.20220976 0.54640812 0.0014132388 712 151
-0.092497744 0.2018874 0.54605329 0.0013569962 752 159
-0.089792207 0.20169993 0.54604411 0.0013451078 751 159
-0.087100722 0.2015337 0.54607397 0.0012180519 896 190
-0.084159322 0.20076104 0.54444093 0.0010492393 1221 255
-0.081343681 0.20024857 0.54349321 0.00095834036 1352 255
-0.07894098 0.20075236 0.54528677 0.0010705999 1095 232
-0.0762702 0.20058554 0.54524267 0.0011009822 1059 224
-0.073587388 0.20037414 0.54506016 0.0011145193 1026 217
-0.070795305 0.19983882 0.54397869 0.001178969 942 199
-0.068203419 0.19984935 0.54436606 0.0011924943 946 200
-0.065435812 0.19932544 0.54328102 0.0011992201 917 194
-0.062821761 0.19924544 0.54338926 0.0012547319 868 184
-0.06071011 0.20082034 0.54799789 0.0014898926 647 137
-0.058309391 0.20153758 0.55025452 0.0017317656 526 111
-0.055932421 0.20240818 0.55291706 0.002006426 427 90
-0.053458109 0.202995 0.55479175 0.0021445837 366 77
-0.051400211 0.20530599 0.56136763 0.0027510086 278 58
-0.049280521 0.20760956 0.56791431 0.0033765954 199 42
-0.047210444 0.21040091 0.57578671 0.0038705713 169 35
-0.045292143 0.2142532 0.58655512 0.0047234581 138 29
-0.043077204 0.21711475 0.5946036 0.0063386587 105 22
-0.040975284 0.22098671 0.60541099 0.0065365927 95 20
-0.038616519 0.22395241 0.61372709 0.006869555 86 18
-0.035638463 0.22351724 0.61271083 0.0076803849 81 17
-0.033057787 0.22571816 0.61890751 0.008243138 71 15
-0.030426618 0.22796908 0.6252299 0.0083086286 71 15
-0.027586499 0.22897105 0.62811458 0.0088710524 73 15
-0.024612224 0.22896709 0.62822592 0.0087409131 72 15
-0.021581192 0.22836141 0.62667197 0.0079819728 75 15
-0.018370241 0.22535567 0.61851591 0.0071210768 83 17
-0.015266929 0.22278123 0.6115278 0.0072757923 83 17
-0.012280139 0.22110075 0.6069786 0.0068108412 87 18
-0.0093389591 0.2194663 0.60254163 0.0063326727 101 21
-0.006345232 0.21461846 0.58926773 0.0055052019 110 23
-0.0035100672 0.21173942 0.58138543 0.0050609009 122 25
-0.00075009873 0.20897478 0.57380414 0.0045230165 134 28
0.0019318458 0.20554936 0.56439584 0.0042772205 158 33
0.0044368892 0.19819638 0.54419154 0.0023711047 320 67
0.0068944325 0.19490001 0.53511465 0.0014781855 660 140
nan nan nan 0 371 78
nan nan nan 0 611 129
0.013178803 0.17728259 0.48660913 0.0013778538 736 156
0.015608083 0.17873414 0.49052608 0.0016872822 528 112
0.018223854 0.18166885 0.49850073 0.0020934395 404 85
0.020575862 0.18160282 0.49822885 0.0023766533 325 68
0.023071997 0.18269157 0.50111318 0.0026348373 280 59
0.026010141 0.18675087 0.5121308 0.0031929486 214 45
0.028621923 0.1879743 0.51535642 0.0035687555 187 39
0.031351283 0.18971695 0.51999134 0.0039486107 166 35
0.033942521 0.1904307 0.52179176 0.0041304855 157 33
nan nan nan 0 127 26
nan nan nan 0 190 40
0.044550784 0.20510991 0.56142873 0.0023607016 324 68
0.047505725 0.20637405 0.56466478 0.0033310046 201 42
0.052074086 0.21413785 0.58565986 0.0053627403 110 23
0.055374358 0.21616416 0.59093666 0.0063373088 100 21
0.0585468 0.21752 0.59436077 0.0061185276 98 20
0.061854657 0.21923095 0.59873545 0.0064444453 99 21
0.065795809 0.22293711 0.60853517 0.0072826683 89 18
0.069603734 0.22589843 0.61627531 0.0076849661 86 18
0.072916143 0.22707708 0.61912847 0.0068084635 87 18
0.075974338 0.22740319 0.61963731 0.0069283862 88 18
0.078912139 0.227358 0.61911613 0.0070305811 82 17
0.083082855 0.23074014 0.62790364 0.0069968556 83 17
0.087012403 0.23324037 0.63426143 0.0071058716 86 18
0.090140015 0.23349503 0.63448852 0.0074083889 82 17
0.092689335 0.23228391 0.63071513 0.0066622724 89 18
0.095359884 0.23144336 0.62793267 0.0069462731 88 18
0.098204337 0.23106334 0.62638253 0.0071353624 89 18
0.10063439 0.22975977 0.62231284 0.0064750426 89 18
0.10344309 0.22937086 0.62070441 0.0062141013 92 19
0.10616668 0.22882029 0.6186406 0.0064878468 89 18
0.10873043 0.22796457 0.61573499 0.0063287541 96 20
0.10971446 0.22393 0.60423595 0.0058880388 108 22
0.11210682 0.222904 0.60084856 0.0048604016 127 26
0.11367103 0.22032447 0.59326363 0.004247745 147 31
0.115807 0.21895266 0.58892214 0.0042388882 160 33
0.11808045 0.21790029 0.58542752 0.0039269985 164 34
0.11984199 0.21597464 0.57957619 0.0036212313 189 40
0.12171007 0.21432465 0.57445675 0.0031228571 246 52
0.12430617 0.21400186 0.57288194 0.0026635504 276 58
0.12767223 0.21498966 0.57479459 0.0031352355 231 49
0.13113275 0.21609089 0.57698494 0.003617506 197 41
0.1341226 0.21638659 0.57700145 0.0034513222 210 44
0.13648611 0.21568042 0.57433057 0.0031385692 218 46
0.13996828 0.21673481 0.57632977 0.0032939122 216 45
0.14310233 0.21721922 0.57679147 0.0031732798 220 46
0.14609002 0.21746702 0.57660705 0.0030228232 221 46
0.14914159 0.21779872 0.57662874 0.0029028202 241 51
0.15205026 0.21791328 0.57606101 0.0034704159 209 44
0.15462337 0.21755151 0.5742237 0.0036771772 198 42
0.15779486 0.21802954 0.57459283 0.0040234011 179 37
0.16048592 0.21783862 0.5731898 0.0037563813 174 36
0.16352504 0.2181185 0.57301927 0.0038048304 167 35
0.16654898 0.21836899 0.57276571 0.0035711895 188 39
0.16929114 0.2182478 0.57153529 0.0036206809 186 39
0.17208783 0.21819974 0.57049859 0.0037825701 167 35
0.17689286 0.22065854 0.57601023 0.0042355028 145 30
0.17979482 0.22070278 0.57521594 0.0043032658 145 30
0.18361665 0.22185716 0.57732052 0.0041993214 148 31
0.18689595 0.22233045 0.57766044 0.0045330366 148 31
0.19076505 0.22348025 0.57976967 0.004660733 135 28
0.19647621 0.22672121 0.58730841 0.0064087533 104 22
0.20096137 0.22847264 0.59099591 0.0065982467 87 18
0.20534709 0.23006171 0.59428149 0.0067678825 90 19
0.20956255 0.23141718 0.59698796 0.0072357017 80 16
0.21436629 0.23337474 0.60127556 0.0074703954 79 16
0.22021472 0.23639917 0.60833967 0.0070553953 83 17
0.22567445 0.23892896 0.61416233 0.0070892088 80 16
0.22828527 0.2384147 0.61220706 0.0071478379 82 17
nan nan nan 0 89 18
0.23198771 0.23588237 0.60462117 0.0069404398 89 18
0.23076536 0.23158124 0.59315461 0.0086045582 77 16
0.23264825 0.23046693 0.5899244 0.0083692614 76 16
0.2351384 0.22997485 0.58835536 0.0088687241 73 15
0.23946811 0.23127171 0.59143037 0.0074224831 75 15
0.24077617 0.22965436 0.58712268 0.007291853 85 18
0.24222757 0.22821166 0.58333427 0.0073222169 80 16
0.24341553 0.22655864 0.57908058 0.0062094093 102 21
0.23235029 0.21367666 0.54619521 0.002612405 271 57
0.23399004 0.21264477 0.54366571 0.0020404251 400 84
0.24264692 0.21793959 0.55738294 0.0017899786 481 102
nan nan nan 0 433 91
nan nan nan 0 312 66
nan nan nan 0 953 202
nan nan nan 0 2204 255
nan nan nan 0 2506 255
nan nan nan 0 2262 255
0.24049526 0.19969998 0.51362276 0.00088745327 1552 255
0.24302125 0.19964437 0.51412821 0.0011174979 1042 221
0.24538288 0.19945632 0.5143472 0.0015467907 622 131
0.25327235 0.20371854 0.52611142 0.0022103246 344 72
nan nan nan 0 229 48
0.30299604 0.23872575 0.6185171 0.003731 183 38
nan nan nan 0 233 49
nan nan nan 0 519 110
0.26167354 0.20002781 0.52113271 0.0015219093 658 139
0.26280418 0.19891721 0.51928449 0.0019064021 442 93
0.26523224 0.19880065 0.52006775 0.0036151267 202 42
0.26328343 0.19543743 0.51237857 0.0024551356 291 61
0.26532862 0.19507484 0.51257277 0.0020389277 400 84
nan nan nan 0 315 66
nan nan nan 0 453 96
nan nan nan 0 337 71
nan nan nan 0 542 114
nan nan nan 0 234 49
nan nan nan 0 213 45
nan nan nan 0 288 61
-0.27295887 0.19132002 0.50459468 0.0027814659 267 56
-0.27224535 0.1925503 0.50681156 0.0039331741 166 35
-0.28581214 0.20399548 0.53574067 0.005134664 115 24
-0.27777082 0.20008712 0.52425033 0.0026350766 268 56
-0.26315856 0.19132847 0.50011164 0.0022322489 320 67
-0.2637634 0.19357263 0.50477761 0.0034698907 182 38
nan nan nan 0 89 18
-0.27247813 0.20380363 0.52899557 0.0028211363 268 56
-0.26949453 0.20352378 0.52708763 0.0019195891 417 88
-0.27035901 0.20617296 0.53278971 0.0019669717 393 83
-0.27757505 0.2137659 0.55125171 0.0035168908 187 39
nan nan nan 0 169 35
-0.2631633 0.20675002 0.53104699 0.002977723 231 49
-0.26117608 0.20727667 0.53140962 0.002599041 274 58
nan nan nan 0 218 46
-0.25811565 0.20910326 0.5342409 0.0047042682 143 30
