# .PCD v0.7 - Point Cloud Data file format
VERSION 0.7
FIELDS x y z normal_x normal_y normal_z curvature
SIZE 4 4 4 4 4 4 4
TYPE F F F F F F F
COUNT 1 1 1 1 1 1 1
WIDTH 568
HEIGHT 1
VIEWPOINT 0 0 0 1 0 0 0
POINTS 568
DATA ascii
0.0020616094 -0.080143735 0.25630575 -0.09755303 -0.26644447 -0.95890087 0.028957473
0.0032643974 -0.080308653 0.25682428 -0.033862665 -0.27645546 -0.96042991 0.030119592
0.0044638966 -0.080325827 0.25686616 0.041659519 -0.26411739 -0.96359044 0.032621663
0.005657237 -0.080248363 0.25660139 0.12142615 -0.2735219 -0.95417058 0.031752884
0.0068296669 -0.079953164 0.25563645 0.19334519 -0.26728198 -0.94402224 0.026870506
0.0080339443 -0.080063157 0.25596294 0.26923835 -0.26313359 -0.92642939 0.016995883
0.0093293693 -0.080935411 0.25872186 0.30821064 -0.25260118 -0.91716897 0.013083802
0.010532977 -0.080902442 0.25858256 0.36865181 -0.23606342 -0.89909399 0.012585765
0.011750956 -0.080975302 0.2587772 0.41323519 -0.22587693 -0.88216573 0.012324317
0.013042784 -0.081495993 0.26039836 0.4893699 -0.21637395 -0.84480739 0.016813738
0.014288062 -0.08166182 0.26088068 0.55097979 -0.21394238 -0.80662882 0.017571058
0.015532706 -0.081798233 0.26126438 0.57826322 -0.20775814 -0.78895384 0.01791551
0.016881017 -0.082420915 0.26319605 0.64223546 -0.17957065 -0.74517643 0.021686651
0.018155681 -0.082623862 0.26378205 0.6876986 -0.17664313 -0.70417887 0.022187075
0.019613326 -0.083580747 0.2667692 0.75623423 -0.11930496 -0.64333194 0.022878598
-0.013856955 -0.081110336 0.26334512 -0.63457012 -0.22533984 -0.73928529 0.04585129
-0.012567208 -0.08071918 0.26211908 -0.5641107 -0.21658315 -0.79678786 0.044450611
-0.011292736 -0.080352396 0.26096752 -0.45046899 -0.21363302 -0.86685562 0.038183626
-0.010009564 -0.079827584 0.25929806 -0.34417075 -0.23034476 -0.91021311 0.02291582
-0.0088126408 -0.079940908 0.25969708 -0.34262896 -0.22724383 -0.91157317 0.021014534
-0.0076020067 -0.079946145 0.25974092 -0.33079416 -0.22978646 -0.91529959 0.018459229
-0.0063903653 -0.079940759 0.25974619 -0.32252797 -0.23649803 -0.91653937 0.014831059
-0.0051694536 -0.079789773 0.25927439 -0.30900428 -0.24734978 -0.91833246 0.013701894
-0.0039580865 -0.079738915 0.25912386 -0.27994338 -0.24838582 -0.92732745 0.012093058
-0.0027535623 -0.079841785 0.259469 -0.25055072 -0.25546163 -0.93378991 0.013165542
-0.0015432166 -0.079804771 0.25935566 -0.21775441 -0.25207886 -0.94288886 0.014259452
-0.00032960423 -0.078719772 0.25583252 -0.19239894 -0.30402154 -0.93303466 0.019710397
0.00085879676 -0.078333892 0.25457761 -0.14725026 -0.31192648 -0.93862623 0.028705504
0.0020616367 -0.078948699 0.25657094 -0.084303752 -0.27512106 -0.95770627 0.032057803
0.0032497707 -0.078755654 0.25593504 -0.02627789 -0.2728155 -0.96170741 0.034694076
0.00446025 -0.079062387 0.25691929 0.032638513 -0.26131812 -0.96470076 0.033979844
0.0056490791 -0.078936726 0.25649458 0.10242981 -0.26458329 -0.9589076 0.035163712
0.0068450538 -0.078937374 0.25647643 0.20031795 -0.26349682 -0.94363248 0.029965615
0.0080989059 -0.07950601 0.2582995 0.25539878 -0.25053146 -0.93381232 0.021927239
0.0093124155 -0.079582632 0.25851992 0.3291074 -0.2257724 -0.91690516 0.013739405
0.01049179 -0.079383411 0.25784019 0.38038936 -0.21682003 -0.89905119 0.012732525
0.01169679 -0.079399116 0.25785455 0.4127557 -0.20703332 -0.88700056 0.013370078
0.01301582 -0.080113776 0.26013419 0.50641596 -0.19454943 -0.84005558 0.017131273
0.01425818 -0.080274843 0.26061156 0.55760729 -0.1899488 -0.80808014 0.016960276
0.015508574 -0.080452271 0.26113737 0.59522837 -0.17571653 -0.78410894 0.018521788
0.016803784 -0.080819398 0.26227412 0.63750285 -0.16338405 -0.75292474 0.01973022
0.018151978 -0.081374161 0.26401451 0.70470679 -0.16006115 -0.69120812 0.021018852
0.019386545 -0.081381395 0.26397333 0.72386974 -0.13768299 -0.67605919 0.021609653
0.020892432 -0.082458608 0.26739702 0.81157684 -0.059679009 -0.58118969 0.014982066
-0.015171343 -0.080334418 0.26505709 -0.78040665 -0.17091484 -0.60145944 0.041468654
-0.013814576 -0.079637185 0.2628032 -0.62650049 -0.19266988 -0.75523204 0.04429609
-0.012511594 -0.079144455 0.26121941 -0.55791634 -0.1931009 -0.80711919 0.043387435
-0.011229536 -0.078692146 0.25976428 -0.45113248 -0.21852773 -0.86528903 0.036570836
-0.0099843442 -0.078420095 0.25889984 -0.37179187 -0.23123926 -0.89905471 0.025356097
-0.008748387 -0.078155749 0.25805661 -0.3458935 -0.2593621 -0.9017145 0.019850621
-0.0075496268 -0.07819242 0.25820336 -0.3448194 -0.25513834 -0.90332943 0.017899204
-0.0063666319 -0.078437231 0.25903356 -0.33986473 -0.25984234 -0.90386611 0.015186042
-0.0051610116 -0.078452602 0.25910237 -0.3123858 -0.25862217 -0.91407317 0.013216763
-0.0039533214 -0.078436293 0.25906271 -0.28627354 -0.26744768 -0.92006475 0.013346716
-0.0027485546 -0.078489132 0.25924763 -0.24916859 -0.26224783 -0.93227732 0.01269947
-0.0015414628 -0.078506373 0.25931123 -0.21503578 -0.26418418 -0.94019485 0.015305931
-0.00033194537 -0.078077815 0.25789857 -0.17268351 -0.2838819 -0.94318157 0.023032648
0.00085579569 -0.076877519 0.25393304 -0.14523624 -0.31995127 -0.9362359 0.028206995
0.0020398912 -0.07693249 0.2541101 -0.070188381 -0.30890745 -0.94849873 0.032188509
0.0032410442 -0.0773542 0.25549483 -0.0064728609 -0.29514468 -0.95543063 0.032700088
0.0044335206 -0.077397928 0.2556273 0.039727088 -0.27697942 -0.96005422 0.035833161
0.005638435 -0.077594325 0.25626025 0.117066 -0.26918435 -0.95594734 0.034536209
0.006860151 -0.077912904 0.25729281 0.20060804 -0.25461838 -0.94600523 0.030669134
0.0080756899 -0.078077018 0.25781131 0.26750371 -0.24239233 -0.93257052 0.025063459
0.0092998836 -0.078271449 0.25842592 0.33798561 -0.21954618 -0.91518587 0.017847147
0.010485945 -0.078137174 0.25795132 0.40410379 -0.19803475 -0.8930186 0.015660074
0.011690494 -0.078154109 0.25797188 0.43348563 -0.18412615 -0.88214946 0.016184967
0.012933209 -0.078399234 0.25874162 0.49655539 -0.169525 -0.85128963 0.017460184
0.014234182 -0.078925595 0.26043481 0.55871129 -0.1591706 -0.81394494 0.017308583
0.015476776 -0.079070933 0.26086625 0.61181945 -0.15048425 -0.77655107 0.017516617
0.016796649 -0.079561152 0.26243064 0.64915735 -0.13360624 -0.74882853 0.020141322
0.018188536 -0.080302723 0.26481885 0.73812044 -0.12347376 -0.66327417 0.019075429
0.019484648 -0.080554023 0.26558486 0.77759069 -0.092165031 -0.62197942 0.018814277
0.020905821 -0.081261374 0.26784903 0.82077777 -0.0079249693 -0.57119262 0.010786469
-0.015072225 -0.078581832 0.26357746 -0.75132781 -0.11243638 -0.65028036 0.041625701
-0.013708769 -0.077811524 0.26103821 -0.62948775 -0.169618 -0.75827098 0.040711429
-0.012478421 -0.077720337 0.26077273 -0.58388841 -0.19173606 -0.78886729 0.040832564
-0.011139301 -0.076858982 0.25791872 -0.43714601 -0.23077329 -0.86927962 0.028207669
-0.009943434 -0.076897331 0.25807953 -0.39252928 -0.25108764 -0.8848027 0.02545128
-0.0087492503 -0.076961033 0.2583217 -0.35613599 -0.2640757 -0.89634323 0.021817451
-0.0075551309 -0.077045687 0.25863048 -0.3540532 -0.26021707 -0.89829469 0.018390017
-0.0063593378 -0.077142112 0.25897509 -0.34873733 -0.26699552 -0.89838499 0.017578712
-0.0051434445 -0.076982796 0.25845751 -0.31714022 -0.28161123 -0.90560323 0.016173359
-0.00393266 -0.076826043 0.25794482 -0.2867988 -0.29901668 -0.91012937 0.015379012
-0.002736914 -0.076954402 0.25838572 -0.25452331 -0.30529124 -0.91761386 0.015289638
-0.0015343409 -0.076941542 0.25834885 -0.20538764 -0.29823923 -0.93213159 0.02060633
-0.00033157296 -0.076790452 0.25784436 -0.18022549 -0.30739427 -0.93435943 0.021943403
0.00085241708 -0.075396039 0.25316146 -0.13106211 -0.32862067 -0.93532413 0.029861374
0.0020442237 -0.075909883 0.25488245 -0.056537323 -0.3093313 -0.94927222 0.031884376
0.0032306351 -0.075919613 0.25490728 0.015964618 -0.2906073 -0.95670921 0.033818476
0.0044258935 -0.076076187 0.25542155 0.072763838 -0.2723797 -0.95943463 0.035132676
0.0056431261 -0.076464221 0.25670922 0.13576178 -0.25014454 -0.95864302 0.034219526
0.0068331538 -0.076412439 0.2565167 0.214811 -0.23366733 -0.948291 0.031739715
0.0080502396 -0.076633647 0.25723678 0.29337177 -0.21325588 -0.93190932 0.025898682
0.009259928 -0.076736264 0.25755504 0.36477455 -0.19116031 -0.91126132 0.021323897
0.010485868 -0.076934583 0.25819069 0.42987686 -0.17195784 -0.8863613 0.017739844
0.011685385 -0.0769182 0.25810176 0.46762449 -0.15019414 -0.8710736 0.018013876
0.012916224 -0.077091821 0.25864646 0.51259667 -0.1274758 -0.84911406 0.017669298
0.014160031 -0.077306613 0.25932512 0.56474543 -0.11983961 -0.81651765 0.017300021
0.015486296 -0.077902451 0.26127741 0.62553316 -0.12136106 -0.77070081 0.018121902
0.016721031 -0.077984557 0.26150209 0.65847015 -0.10078717 -0.74582773 0.018474393
0.018047567 -0.078454584 0.26302296 0.69918984 -0.087303855 -0.70958555 0.017787138
0.019454129 -0.079190582 0.26543021 0.79431295 -0.044219691 -0.60589737 0.014168775
0.020752501 -0.0794245 0.26614922 0.81553864 -0.02013056 -0.57835239 0.011476534
0.02215776 -0.080018021 0.2680679 0.83617771 0.0091813281 -0.54838169 0.0096380515
-0.016411107 -0.07788153 0.2655673 -0.86860865 -0.053455338 -0.49260694 0.023522737
-0.015064598 -0.077314958 0.26368257 -0.77068084 -0.084524721 -0.6315906 0.038112033
-0.013752933 -0.076842569 0.26211441 -0.67689133 -0.13950887 -0.7227416 0.039229237
-0.012404539 -0.076053083 0.25945997 -0.56731945 -0.19062565 -0.80113089 0.035038054
-0.011135202 -0.075630322 0.25805232 -0.49001876 -0.21404424 -0.84502459 0.029861722
-0.0099438876 -0.075699367 0.25831875 -0.42174235 -0.2507562 -0.8713522 0.029069735
-0.0087512527 -0.075775951 0.2586073 -0.39353606 -0.26187497 -0.88122123 0.025683679
-0.00755477 -0.075838313 0.25884381 -0.36787322 -0.27475557 -0.88835728 0.020851554
-0.0063497801 -0.075822741 0.25881067 -0.34451988 -0.28399214 -0.89479303 0.018627744
-0.0051219077 -0.075462736 0.25759828 -0.328318 -0.3108232 -0.89196199 0.015050975
-0.0039197933 -0.075378299 0.25732306 -0.29223004 -0.31990007 -0.90125775 0.015631622
-0.0027253001 -0.075430647 0.25751123 -0.25296655 -0.32475457 -0.91134101 0.017869418
-0.0015277453 -0.075413845 0.25745997 -0.20969994 -0.3270058 -0.92146254 0.020155856
-0.00033065077 -0.075380467 0.25734863 -0.17013085 -0.32156774 -0.93147719 0.022601292
0.00086142943 -0.07500276 0.25605839 -0.11148553 -0.31604996 -0.94216955 0.02876108
0.0020434828 -0.074696802 0.25500971 -0.045394205 -0.31850812 -0.94683266 0.034280278
0.0032262024 -0.074630924 0.25477731 0.03643756 -0.30035967 -0.95312971 0.035272747
0.0044096392 -0.074612573 0.25470373 0.11051946 -0.27654684 -0.95462424 0.03637331
0.0056185387 -0.074941613 0.2558125 0.15674764 -0.23685457 -0.95881706 0.0360099
0.0067786942 -0.074619114 0.25469387 0.24653627 -0.19410621 -0.94949597 0.031770911
0.0079802135 -0.074780151 0.25522217 0.30510646 -0.18811688 -0.93355346 0.027308747
0.0092363115 -0.075344704 0.25712389 0.38049948 -0.16846019 -0.9093082 0.02449389
0.010449082 -0.075466909 0.25751221 0.4444074 -0.14024207 -0.88477921 0.019686148
0.011674429 -0.075645462 0.25808898 0.4894053 -0.12400792 -0.86319435 0.018118611
0.012873662 -0.075637288 0.25802478 0.5189985 -0.10790243 -0.84793735 0.017489029
0.014151355 -0.076052167 0.25939974 0.57989323 -0.088572793 -0.80986333 0.016761376
0.015356812 -0.076044135 0.25932816 0.60769886 -0.076716781 -0.79045349 0.016139068
0.01669261 -0.076635689 0.26129687 0.66533673 -0.075031847 -0.74276322 0.016479956
0.018045094 -0.077218242 0.26323003 0.73649418 -0.049571801 -0.67462498 0.015332928
0.019429477 -0.077854544 0.26534122 0.80742204 -0.016727779 -0.58973706 0.011074689
0.020753192 -0.078186199 0.26640898 0.82951015 0.0061037038 -0.55845833 0.0094882939
0.022030536 -0.078315571 0.26678261 0.84437376 0.014381606 -0.53556144 0.00853879
-0.016504044 -0.077079445 0.26730144 -0.90842384 0.0072180792 -0.41798803 0.015439293
-0.015082588 -0.0761787 0.2642231 -0.8241753 -0.031418651 -0.56546253 0.029248668
-0.013718358 -0.075432822 0.26167715 -0.70373803 -0.11974771 -0.70029515 0.035657704
-0.012489405 -0.075358033 0.26145494 -0.64056885 -0.15355335 -0.75239152 0.037610877
-0.011228639 -0.075054482 0.26043519 -0.58450782 -0.19570656 -0.78743225 0.036903847
-0.0098985136 -0.074157946 0.25735372 -0.45423713 -0.24999961 -0.85508406 0.029426593
-0.0087440461 -0.074511841 0.25860789 -0.41837808 -0.25961909 -0.87037784 0.028165216
-0.0075388388 -0.074477248 0.25851041 -0.39643344 -0.28201166 -0.87367612 0.02444748
-0.0062847114 -0.07385464 0.25636837 -0.35073835 -0.31214112 -0.88292158 0.016633371
-0.0050973454 -0.073908873 0.25657231 -0.32967928 -0.32259718 -0.88726693 0.015529331
-0.0039080638 -0.073959947 0.25676197 -0.30197406 -0.33073565 -0.89410603 0.016433636
-0.0027130588 -0.073899984 0.25656292 -0.24124785 -0.33230433 -0.91179675 0.021372633
-0.0015208686 -0.073882841 0.25650913 -0.20042704 -0.33387092 -0.92106426 0.021981858
-0.00032820122 -0.073634461 0.25564936 -0.15441416 -0.3433879 -0.926413 0.024624385
0.00085917389 -0.073619068 0.25559515 -0.089534424 -0.33604568 -0.93758035 0.03115684
0.002040202 -0.073393211 0.25480705 -0.029409571 -0.32778087 -0.94429588 0.035685867
0.0032181805 -0.073263779 0.25435051 0.072718903 -0.29483408 -0.95277745 0.036716226
0.0044012903 -0.073289312 0.25442871 0.14280818 -0.2756573 -0.9505887 0.037179127
0.0055703144 -0.073119134 0.25382423 0.21999215 -0.24513716 -0.94419873 0.033870608
0.0067688082 -0.073327668 0.25453112 0.26892871 -0.20972936 -0.94004834 0.033294745
0.007952529 -0.073337942 0.25454643 0.32463637 -0.18299788 -0.92796713 0.029701786
0.0091803335 -0.073699459 0.25577733 0.40487939 -0.14693041 -0.90248775 0.023828618
0.010451398 -0.074285582 0.25778389 0.45840484 -0.12098671 -0.88046986 0.020351205
0.011659683 -0.074350804 0.25797909 0.50627738 -0.10218184 -0.85629559 0.017360482
0.012851625 -0.074309371 0.25780067 0.5303492 -0.08843039 -0.84315467 0.018133538
0.014074322 -0.074437663 0.25820726 0.57966465 -0.079211734 -0.81099594 0.016932046
0.015355293 -0.07482978 0.259525 0.62531412 -0.056425482 -0.77833056 0.016039187
0.01660493 -0.075023174 0.26014933 0.66123146 -0.04411507 -0.74888366 0.014849212
0.018029669 -0.07592769 0.26323479 0.75548518 -0.025816336 -0.65465689 0.013592108
0.019454092 -0.076715931 0.26591185 0.8208074 -0.00041790129 -0.5712049 0.010777675
0.020766646 -0.076995119 0.26681942 0.83375126 0.0086242864 -0.55207288 0.0096183745
0.022186257 -0.07761734 0.26891056 0.86075675 0.037700921 -0.50761849 0.0097570643
0.023705544 -0.078503177 0.27190918 0.88045645 0.084059075 -0.46661609 0.013005057
-0.016558634 -0.076087184 0.26840368 -0.92338508 0.027008116 -0.38292378 0.010924259
-0.015270536 -0.075884081 0.26773119 -0.90923107 0.027273327 -0.41539735 0.014014388
-0.013709714 -0.074169509 0.26172122 -0.74760234 -0.091492966 -0.65781438 0.033314079
-0.012475753 -0.074061647 0.26137626 -0.67166662 -0.13534307 -0.72838604 0.036238436
-0.011241223 -0.073926792 0.26093236 -0.60209733 -0.18115103 -0.77760088 0.036182422
-0.010011501 -0.073794782 0.26049492 -0.53603286 -0.21396801 -0.81663114 0.037280928
-0.0087312274 -0.073202662 0.25842968 -0.44373438 -0.27022761 -0.85444534 0.028824504
-0.0074994629 -0.072893374 0.2573593 -0.40303418 -0.2919738 -0.86736077 0.024297634
-0.0062738089 -0.072537489 0.25612095 -0.36345676 -0.31147182 -0.87800032 0.018064683
-0.0050621987 -0.072215505 0.25499889 -0.33403257 -0.32347247 -0.88531792 0.017887441
-0.0038656585 -0.071977571 0.25417045 -0.29219237 -0.32796776 -0.89836556 0.019220052
-0.0026971775 -0.072282538 0.255256 -0.24419406 -0.33659023 -0.90943736 0.021692162
-0.001515864 -0.072452076 0.25586021 -0.21040545 -0.33584526 -0.91811621 0.024033405
-0.00032693724 -0.072167903 0.25485906 -0.15404929 -0.33940595 -0.92793989 0.026667684
0.00085509213 -0.072087653 0.25457495 -0.08763966 -0.32935742 -0.94012928 0.032428484
0.0020192172 -0.071466833 0.25237879 0.0045866189 -0.31594726 -0.9487657 0.036767166
0.0031976714 -0.071622826 0.25292289 0.096260406 -0.29589707 -0.9503572 0.038157083
0.0043780399 -0.071726412 0.25327873 0.1658875 -0.28584057 -0.94380957 0.035966992
0.0067118276 -0.071537748 0.25258335 0.30509013 -0.2358387 -0.92265928 0.031102231
0.0079315854 -0.071965151 0.25407302 0.36018133 -0.18005468 -0.91534126 0.030617451
0.0091910316 -0.072595358 0.25627506 0.42884925 -0.13699588 -0.89292806 0.024650188
0.010429315 -0.072933093 0.25744101 0.48301503 -0.10293773 -0.86954027 0.020737041
0.011640786 -0.073033139 0.2577644 0.51829278 -0.08224795 -0.85123903 0.018575087
0.012840629 -0.073048368 0.25778499 0.54651719 -0.066226155 -0.8348251 0.017861128
0.01407797 -0.073256142 0.25848132 0.60304314 -0.063578919 -0.7951709 0.018644579
0.015314077 -0.073425338 0.25903776 0.62690711 -0.04590065 -0.77774072 0.015990883
0.016684733 -0.074167967 0.26161301 0.68949383 -0.024059664 -0.72389191 0.013433313
0.018140582 -0.075162724 0.26507255 0.79836667 -0.0011268478 -0.60217053 0.010670786
0.019440137 -0.07542453 0.26594251 0.83051378 0.0077452627 -0.55694431 0.0098335091
0.02081592 -0.075933114 0.26767781 0.85791367 0.047710005 -0.51157385 0.008780445
0.022306943 -0.076780967 0.27060378 0.87305528 0.091862999 -0.47889006 0.01023344
0.02371392 -0.077264413 0.27223986 0.87176943 0.12318257 -0.47417718 0.011446378
-0.016553046 -0.074814692 0.26851854 -0.91773224 0.048689749 -0.39420396 0.0099286893
-0.015205069 -0.074320182 0.26678559 -0.90221232 0.044261821 -0.42901501 0.013124908
-0.013695421 -0.07287766 0.26164496 -0.77159655 -0.071180046 -0.63211721 0.028538972
-0.012436923 -0.072620891 0.26075706 -0.70121896 -0.13914312 -0.69923609 0.031742703
-0.01121989 -0.072576985 0.26063001 -0.63396853 -0.17714034 -0.75279826 0.034335475
-0.0099447379 -0.072101094 0.25894812 -0.53040582 -0.24117613 -0.81271386 0.030044932
-0.0087181218 -0.071894653 0.25823045 -0.46953577 -0.27108443 -0.84026748 0.027237911
-0.0074831452 -0.071542501 0.25698602 -0.41111585 -0.28857562 -0.86470109 0.023338635
-0.0062709567 -0.071316019 0.25618976 -0.37967199 -0.30700803 -0.87269425 0.018602097
-0.0050506024 -0.070869029 0.25459823 -0.3338424 -0.31486306 -0.88848776 0.018575741
-0.0038625938 -0.070741586 0.25415152 -0.29735401 -0.3272604 -0.89692885 0.01933315
-0.0026739279 -0.070484824 0.25323725 -0.24363501 -0.33578202 -0.90988594 0.023589026
-0.0015143948 -0.071195357 0.2557953 -0.20350195 -0.33780923 -0.91895151 0.025275532
-0.0003276318 -0.07113573 0.25558338 -0.15203145 -0.33329359 -0.93048471 0.028772688
0.00084849546 -0.070358984 0.25279191 -0.067626171 -0.31652066 -0.94617194 0.034766372
0.0020173774 -0.070231296 0.25232959 0.0021450541 -0.30418491 -0.95261061 0.03761724
0.0031840496 -0.070148684 0.25202629 0.10353397 -0.29501235 -0.94986755 0.041549906
0.0068628523 -0.071948394 0.25845408 0.33212817 -0.16714808 -0.92830616 0.036754236
0.0078835394 -0.070356712 0.25271797 0.39064175 -0.20079117 -0.89837736 0.029502707
0.0091487262 -0.071076706 0.2552824 0.44534272 -0.13978989 -0.88438034 0.026201025
0.010400863 -0.071541868 0.25692803 0.49991742 -0.098261669 -0.86048079 0.020454613
0.011606042 -0.071621574 0.25718591 0.54167598 -0.0670183 -0.83791149 0.019353123
0.01282005 -0.071735814 0.25756443 0.56376392 -0.052741803 -0.82425034 0.020298241
0.014062331 -0.071975283 0.25838903 0.60954356 -0.035896357 -0.79193944 0.018736733
0.015368897 -0.072480276 0.26016307 0.67621064 -0.012199676 -0.73660737 0.015152594
0.016707581 -0.073052108 0.26217273 0.71137774 0.0076189889 -0.70276845 0.012765068
0.018016743 -0.073425941 0.26346755 0.77118415 0.012719477 -0.6364851 0.012272966
0.019477651 -0.074331336 0.26666501 0.84501511 0.039849311 -0.53325558 0.0092476159
0.020802943 -0.074641846 0.26772353 0.8639282 0.053949401 -0.50071687 0.0083263796
0.022403326 -0.075848669 0.27199155 0.86976087 0.12578182 -0.47717389 0.0090320427
0.023813825 -0.076318055 0.27360949 0.89915717 0.1494858 -0.41130322 0.0087748971
-0.018312942 -0.075688533 0.27641228 -0.97575319 0.012120538 -0.2185377 0.004905099
-0.016787073 -0.074607983 0.27251083 -0.96100712 0.054624107 -0.27107492 0.0047889906
-0.015082265 -0.07249137 0.2648195 -0.88179255 0.0055070561 -0.47160524 0.018371994
-0.013747268 -0.071934424 0.26282093 -0.81105042 -0.054626822 -0.58242017 0.026456172
-0.012410164 -0.071256995 0.26037821 -0.7165646 -0.14481732 -0.68232191 0.029397219
-0.011139867 -0.070858456 0.25895086 -0.62455529 -0.19391324 -0.75652385 0.025650114
-0.009908163 -0.070638753 0.2581737 -0.54541868 -0.23199731 -0.80541646 0.027294517
-0.0086680446 -0.070290416 0.25692311 -0.45894998 -0.25802097 -0.85017055 0.024612961
-0.0074674371 -0.070202552 0.25662139 -0.43374065 -0.2816112 -0.85589963 0.02349695
-0.0062454254 -0.069841996 0.25531983 -0.38359842 -0.29386818 -0.87549627 0.018417813
-0.0050558327 -0.069760144 0.25503415 -0.34020501 -0.30954614 -0.88794243 0.020084094
-0.0038532813 -0.069394939 0.25370958 -0.29693955 -0.31948212 -0.89986557 0.019055218
-0.0026792679 -0.06944859 0.25391349 -0.26148197 -0.3248201 -0.90891087 0.023714554
-0.0015010599 -0.069392413 0.25371307 -0.1875366 -0.32755077 -0.92603487 0.027536599
-0.00032429394 -0.069237597 0.25314918 -0.11739369 -0.31291896 -0.94249696 0.030137781
0.00084902643 -0.069229715 0.25311974 -0.04976273 -0.29907721 -0.95293045 0.033328515
0.0020160847 -0.069016621 0.25233722 0.0077084997 -0.29203174 -0.95637763 0.037262473
0.0031858643 -0.069018945 0.25233954 0.1042195 -0.2741501 -0.95602298 0.042110763
0.0044234642 -0.07009472 0.25626358 0.21827902 -0.26587784 -0.93896925 0.040925298
0.0056449841 -0.070514143 0.2577849 0.31053928 -0.22282952 -0.92407382 0.04015841
0.006757543 -0.069663726 0.25466117 0.36518565 -0.20700932 -0.90762687 0.035217576
0.0078948168 -0.069283158 0.25325239 0.42084259 -0.19197817 -0.88658667 0.030865401
0.0091156634 -0.069639601 0.25453463 0.47826079 -0.14583804 -0.86602414 0.028443914
0.010383401 -0.07023149 0.25667414 0.53166687 -0.083121873 -0.84286481 0.021346372
0.011593865 -0.070354089 0.25709519 0.55636531 -0.057043206 -0.82897747 0.020032575
0.012787384 -0.070360571 0.25708872 0.58508074 -0.025607122 -0.8105706 0.02048469
0.014121108 -0.07107161 0.25965303 0.65159601 0.0033366384 -0.75855881 0.016984574
0.015411986 -0.07147219 0.26107919 0.68879247 0.010163018 -0.72488731 0.014973258
0.016667251 -0.071661264 0.261729 0.71880168 0.033859845 -0.69439012 0.013135432
0.017968141 -0.072007507 0.2629489 0.76403457 0.051102448 -0.64314824 0.01266931
0.019416004 -0.072861247 0.26601759 0.84631032 0.065238595 -0.52868015 0.0077289273
0.020833207 -0.073504709 0.26831371 0.86929917 0.075498655 -0.48848638 0.0076479665
0.022392575 -0.074548848 0.2720671 0.88430452 0.13722828 -0.446289 0.007620641
0.023851359 -0.075164475 0.27425113 0.89935929 0.15722881 -0.40796071 0.0078162374
-0.018432694 -0.074892335 0.27840978 -0.97726703 0.025955586 -0.21041729 0.0053749704
-0.016791539 -0.073363073 0.27276739 -0.96155566 0.072967432 -0.26473868 0.0052797724
-0.015102519 -0.071358517 0.26535234 -0.89607066 0.015723314 -0.4436329 0.016701475
-0.013791905 -0.07094492 0.26384878 -0.85694969 -0.02030245 -0.51500005 0.022973945
-0.012381407 -0.069887035 0.25994524 -0.72990382 -0.13083771 -0.67091119 0.025536841
-0.011126525 -0.069574147 0.25880897 -0.64136618 -0.16540754 -0.74919271 0.023131082
-0.0098843304 -0.069274552 0.25771895 -0.55400276 -0.20997134 -0.805601 0.025172995
-0.0086581735 -0.069020472 0.25679514 -0.49480864 -0.23685645 -0.83610016 0.023069864
-0.007442872 -0.068785749 0.25594026 -0.44010642 -0.25577885 -0.86074585 0.02081457
-0.0062349304 -0.068542957 0.25505254 -0.4090189 -0.27861583 -0.8689515 0.018150441
-0.0050377925 -0.068333164 0.25428465 -0.3646006 -0.30410686 -0.88010532 0.019886754
-0.0038610848 -0.068357006 0.25438347 -0.29847279 -0.31984335 -0.89922976 0.019371882
-0.002672646 -0.068102859 0.25344506 -0.24391532 -0.30402112 -0.92091066 0.023924481
-0.0014969516 -0.068029672 0.2531774 -0.17670749 -0.2932862 -0.93955183 0.026096581
-0.00032507014 -0.06822709 0.25391415 -0.094631448 -0.30011603 -0.94919711 0.030422054
0.00085011701 -0.06814386 0.25360379 -0.054991603 -0.28865007 -0.95585412 0.031465635
0.0020094423 -0.067623407 0.25166368 0.016360141 -0.25917038 -0.96569306 0.034873728
0.0032017992 -0.068188593 0.25376117 0.14695881 -0.26198432 -0.95381719 0.044142283
0.0043728733 -0.068118706 0.25349244 0.21803395 -0.24884661 -0.94368249 0.041878603
0.005558576 -0.06825801 0.25399962 0.3073222 -0.22742768 -0.92402905 0.03920871
0.0067398855 -0.068304144 0.25415722 0.3870174 -0.19647865 -0.90089607 0.035090677
0.0079432754 -0.068527035 0.25496975 0.44699866 -0.17153911 -0.87793314 0.031702537
0.0091694994 -0.068863697 0.25620261 0.51670945 -0.11133945 -0.84889036 0.026507933
0.010385979 -0.069058366 0.25690416 0.55763203 -0.057297472 -0.82810837 0.020405166
0.011616584 -0.069297276 0.25776711 0.586254 -0.016695306 -0.80995524 0.021562835
0.012835913 -0.069430627 0.25823429 0.61684901 0.0082197692 -0.78703856 0.019057108
0.013962477 -0.069082268 0.25690684 0.62735814 0.027429538 -0.77824759 0.018381553
0.015424686 -0.070318811 0.26146978 0.70971304 0.043409746 -0.70315224 0.01506466
0.016664196 -0.07043387 0.26185864 0.73815745 0.062963046 -0.67168397 0.012176319
0.017961007 -0.070759043 0.26302496 0.76746494 0.079161823 -0.63618469 0.01226287
0.019430982 -0.071681678 0.26640776 0.85358661 0.098215453 -0.51160884 0.0070908102
0.020773295 -0.072051167 0.26773033 0.87380457 0.093347624 -0.47723344 0.0061969892
0.022307644 -0.07300745 0.27122843 0.90016937 0.11636905 -0.41970626 0.0074455854
0.023605941 -0.073130324 0.27162552 0.89798564 0.13411324 -0.41908878 0.0076432731
-0.018157043 -0.072500534 0.27442181 -0.96509075 0.070367798 -0.25228605 0.0045108702
-0.016562216 -0.071113661 0.26921237 -0.94216138 0.074853003 -0.3266941 0.00570072
-0.015156146 -0.070377328 0.26646116 -0.9185304 0.023482755 -0.39465252 0.013187764
-0.013783935 -0.069681548 0.26385954 -0.85994375 -0.019486155 -0.51001674 0.021658702
-0.012386277 -0.068709217 0.26020697 -0.77122003 -0.11404537 -0.62626934 0.024864461
-0.011105807 -0.068247385 0.25848413 -0.66596025 -0.16298211 -0.72796541 0.021889685
-0.0098592276 -0.067907371 0.25721949 -0.57397473 -0.18787117 -0.79703033 0.021834197
-0.0086331777 -0.067634754 0.25620711 -0.51223969 -0.21526468 -0.8314274 0.023483982
-0.0074033071 -0.067240559 0.25473127 -0.45141903 -0.24318388 -0.85853511 0.018299254
-0.0062046242 -0.067033872 0.25396302 -0.41017601 -0.25464913 -0.87573367 0.015702872
-0.0050294939 -0.067044497 0.25401542 -0.38486981 -0.26826638 -0.88312429 0.01822236
-0.0038432977 -0.066869073 0.2533603 -0.30150872 -0.27766573 -0.91213721 0.02024724
-0.0026691749 -0.066841856 0.25326416 -0.23664986 -0.28240386 -0.92964774 0.021960115
-0.0014960496 -0.066816561 0.25317281 -0.16163743 -0.28139114 -0.94588184 0.024124846
-0.00032359629 -0.066746868 0.25291067 -0.10436641 -0.27118912 -0.95685112 0.027311398
0.00084420142 -0.066503063 0.25198629 -0.029022558 -0.24520577 -0.96903652 0.032092307
0.00199952 -0.066129431 0.25056756 0.01582546 -0.23784015 -0.97117537 0.034514509
0.0031552236 -0.066038229 0.25021645 0.080019787 -0.24193767 -0.9669866 0.038138561
0.0044088904 -0.067495719 0.25573063 0.25346646 -0.23268849 -0.93894136 0.045677241
0.0055899741 -0.067460172 0.25558522 0.33938995 -0.21112318 -0.91664684 0.043106612
0.0067450292 -0.067177817 0.25450212 0.40197232 -0.1974877 -0.89410108 0.03750056
0.0079515167 -0.067415513 0.25538662 0.48826715 -0.14219128 -0.86103237 0.03128475
0.0091785835 -0.06774354 0.25661048 0.5567348 -0.087702766 -0.82604754 0.024463512
0.010414314 -0.068052977 0.25776094 0.60272187 -0.020331325 -0.79769224 0.021358531
0.011640307 -0.068241678 0.25845119 0.61755788 0.019550394 -0.78628236 0.020830628
0.01287258 -0.068428576 0.25913149 0.64365321 0.055901967 -0.76327288 0.019133335
0.01415401 -0.0688226 0.260593 0.68672287 0.066705599 -0.72385222 0.016801644
0.015398638 -0.068989821 0.26119229 0.70195395 0.075472884 -0.7082122 0.014237773
0.016641933 -0.069127135 0.26167503 0.74451375 0.084788091 -0.66220111 0.012003096
0.017914115 -0.069357626 0.26250705 0.77385461 0.095705941 -0.62609053 0.011816834
0.019443994 -0.070493072 0.2667599 0.85954142 0.13099641 -0.49399251 0.0061041843
0.020909891 -0.071274623 0.26966879 0.88610435 0.11874068 -0.44801748 0.0059248474
0.022250554 -0.071565203 0.2707155 0.90780169 0.1172151 -0.4026868 0.006098127
0.023763875 -0.072350405 0.27362859 0.90238893 0.15176748 -0.40331227 0.0060712211
-0.018165166 -0.071260571 0.27470887 -0.96493399 0.074960813 -0.25156158 0.0043181106
-0.016607242 -0.070056096 0.27010378 -0.95869148 0.077595323 -0.27365971 0.0045344541
-0.015186892 -0.069283001 0.26715764 -0.92713529 0.03704267 -0.37289137 0.011932186
-0.013630891 -0.067699067 0.26108071 -0.84850609 -0.088370584 -0.52175468 0.019654343
-0.012360529 -0.067363575 0.25981459 -0.76797867 -0.11448062 -0.63016105 0.021057293
-0.011070816 -0.066838913 0.25781575 -0.65553558 -0.14772487 -0.7405743 0.018375555
-0.0098412484 -0.066594459 0.25689474 -0.59930831 -0.17407005 -0.78136373 0.02081473
-0.008580735 -0.066044629 0.25479281 -0.51129013 -0.20150091 -0.8354519 0.021639045
-0.00736923 -0.06575691 0.25369927 -0.46331343 -0.21441656 -0.85986406 0.016874466
-0.0061939997 -0.065745167 0.25366789 -0.42761174 -0.22008054 -0.87676269 0.015451247
-0.005013471 -0.065658525 0.25334507 -0.38259625 -0.23271847 -0.89412653 0.01662891
-0.0038402099 -0.065643251 0.25329512 -0.29620269 -0.25260809 -0.92111516 0.020224333
-0.0026667388 -0.065609366 0.25317097 -0.23338577 -0.25462651 -0.93845433 0.022313045
-0.0014908405 -0.065415882 0.25242856 -0.16881339 -0.25200647 -0.95288765 0.024711685
-0.00032189133 -0.065230466 0.25171492 -0.086624518 -0.24095981 -0.96666157 0.027076742
0.00084077794 -0.065071486 0.2511009 -0.031563781 -0.23337108 -0.97187537 0.031753
0.0019977586 -0.064912133 0.2504831 0.01749045 -0.23445205 -0.97197038 0.034833051
0.0031563672 -0.064903274 0.2504437 0.1027021 -0.23337178 -0.96694881 0.039992936
0.0043353792 -0.065206058 0.25160444 0.20200479 -0.23278499 -0.95131767 0.043309133
0.0055366228 -0.06564422 0.25328505 0.320721 -0.20990057 -0.92362314 0.043722685
0.0067140874 -0.065696597 0.25347459 0.41810408 -0.17674975 -0.89103788 0.038386665
0.0079070339 -0.065862358 0.25409904 0.49646217 -0.15428405 -0.85423756 0.031598851
0.0091381492 -0.066261962 0.25562301 0.58172381 -0.074974194 -0.80992359 0.025182949
0.010415647 -0.066867732 0.2579394 0.63719201 0.010449613 -0.77063417 0.021913024
0.011640864 -0.06704776 0.25861061 0.64987665 0.050056517 -0.75838959 0.02091381
0.012881086 -0.067272596 0.25945169 0.6596539 0.074768752 -0.74784118 0.020678801
0.014129924 -0.067500226 0.26030055 0.69014835 0.089577846 -0.71810246 0.01755639
0.015352907 -0.067578286 0.26056948 0.71496087 0.10465441 -0.69128758 0.014782247
0.016585454 -0.067683995 0.26094195 0.72754818 0.11853702 -0.67573869 0.011073149
0.017896337 -0.068073303 0.26240438 0.7847842 0.11963917 -0.60811204 0.011758555
0.019492045 -0.069427602 0.26758224 0.86182517 0.13522211 -0.48884797 0.0065714102
0.020956391 -0.070180029 0.27043566 0.89015353 0.13139899 -0.43630388 0.0056587663
0.022360375 -0.070656799 0.27222243 0.91367948 0.12673201 -0.38617191 0.006816668
0.023895893 -0.071476102 0.27532414 0.9157204 0.15670376 -0.37000027 0.0059607918
-0.018335488 -0.070644416 0.27743948 -0.97189355 0.081134386 -0.22099803 0.0048266859
-0.016557097 -0.068597458 0.2694366 -0.95976973 0.068198591 -0.27238017 0.0042924229
-0.015256273 -0.06835679 0.26852423 -0.94848746 0.055764534 -0.31186822 0.0065336889
-0.013611461 -0.066395484 0.26084879 -0.86050963 -0.073722094 -0.50407165 0.018953847
-0.01234589 -0.066082396 0.25964499 -0.77835119 -0.11872339 -0.61650151 0.018557888
-0.011062264 -0.065594755 0.25775236 -0.65428627 -0.15058698 -0.74110264 0.018668542
-0.0097896969 -0.065062769 0.25568256 -0.58913404 -0.14544617 -0.79483747 0.021270731
-0.0085243843 -0.064439394 0.25325075 -0.51121354 -0.16960524 -0.84255254 0.017773706
-0.0073559675 -0.064466566 0.25337306 -0.48459023 -0.18471977 -0.85501516 0.017378008
-0.0061881025 -0.064509772 0.25355604 -0.43608433 -0.19368103 -0.87881625 0.014584808
-0.0050250301 -0.064634845 0.25405845 -0.39835247 -0.21420777 -0.89186901 0.017639838
-0.0038507401 -0.06464795 0.25411847 -0.33848336 -0.22800942 -0.91292977 0.019562706
-0.0026669977 -0.064444132 0.25332355 -0.24532813 -0.23184085 -0.94130963 0.024274198
-0.0014904997 -0.064233162 0.25249818 -0.16348758 -0.23248395 -0.95876116 0.026817812
-0.00032086193 -0.063860856 0.25103641 -0.080232099 -0.23224549 -0.96934247 0.028939383
0.00084374408 -0.064135067 0.25211382 -0.028649757 -0.2309415 -0.9725458 0.031356283
0.001997069 -0.063731097 0.25052309 0.0086047845 -0.22353868 -0.97465706 0.035273299
0.0031523888 -0.063664056 0.25025463 0.10889113 -0.22724131 -0.96773136 0.039552022
0.0043192925 -0.063804135 0.25079811 0.19928607 -0.2165231 -0.95572114 0.041870408
0.0055143912 -0.064213224 0.25239664 0.31650209 -0.20826453 -0.92544711 0.042276718
0.0067100236 -0.064484499 0.25345105 0.4189449 -0.18501014 -0.8889637 0.039927844
0.0078889569 -0.064538471 0.253649 0.52400422 -0.13195699 -0.84143144 0.035147224
0.0090684388 -0.06458237 0.25380492 0.59409398 -0.09964253 -0.79820031 0.027521361
0.01036369 -0.065346159 0.25678727 0.67026663 0.01324546 -0.74200207 0.021865964
0.011603068 -0.065636776 0.25790736 0.66915435 0.049942873 -0.7414434 0.022192135
0.012852405 -0.065924302 0.25901249 0.67723823 0.089039028 -0.7303564 0.020934403
0.014106045 -0.066182949 0.26000115 0.70129913 0.10353495 -0.70530844 0.017806839
0.015342508 -0.066326693 0.26053545 0.72184098 0.13129865 -0.67948973 0.01101849
0.016596846 -0.066521116 0.26126584 0.73772335 0.13870193 -0.66070116 0.010877386
0.01793211 -0.066991456 0.26307651 0.80146259 0.14563365 -0.58004194 0.01077304
0.019305201 -0.067534313 0.26516828 0.84527981 0.1419002 -0.51513726 0.0074887038
0.021041771 -0.069207758 0.27169451 0.9083485 0.14374812 -0.39273337 0.0054994691
0.022457508 -0.069696642 0.27356553 0.91947734 0.15178786 -0.36265934 0.0053932033
0.024139415 -0.070915259 0.27829596 0.94211191 0.15134153 -0.29920045 0.0065314719
-0.01836402 -0.069468021 0.27801555 -0.97787255 0.097133137 -0.18528517 0.0050733038
-0.016528068 -0.067232266 0.26910201 -0.95994574 0.078414813 -0.26898921 0.00448207
-0.01522022 -0.066955455 0.26802516 -0.95443314 0.063086547 -0.29168043 0.0049942057
-0.013596102 -0.065114848 0.26068461 -0.8697679 -0.070272624 -0.48843172 0.014619351
-0.012327817 -0.064786047 0.25939298 -0.77641594 -0.10074852 -0.62211567 0.021215888
-0.010999613 -0.064037494 0.25641787 -0.65429997 -0.12387908 -0.74601984 0.021707423
-0.0097646266 -0.063716337 0.25515127 -0.58676463 -0.13560218 -0.7983228 0.021321638
-0.0085318349 -0.063323177 0.2535938 -0.52878934 -0.15384889 -0.83469284 0.018616762
-0.0073367152 -0.063128896 0.25283033 -0.47424823 -0.1639694 -0.86498702 0.016147157
-0.0061900774 -0.063357189 0.25375706 -0.45814252 -0.17832071 -0.87080836 0.016550442
-0.0050274627 -0.063490503 0.25430119 -0.41057536 -0.19690445 -0.89031255 0.015731815
-0.0038542133 -0.063529879 0.25446695 -0.3408179 -0.20547806 -0.91739959 0.019415474
-0.0026728644 -0.063411705 0.25399947 -0.26690185 -0.21206588 -0.94010186 0.0246992
-0.001493643 -0.063198395 0.25314879 -0.15640952 -0.22001536 -0.96287549 0.028521661
-0.00032363544 -0.063241832 0.25332442 -0.087030455 -0.22261386 -0.97101438 0.030975973
0.00083524548 -0.062334828 0.24969077 -0.02007133 -0.21346247 -0.97674507 0.031562347
0.0019919393 -0.062411733 0.24999629 0.029769523 -0.21096835 -0.97703946 0.033979915
0.0031538249 -0.062535107 0.25048584 0.11576559 -0.20512122 -0.97186607 0.0399055
0.0043120505 -0.06253913 0.25049525 0.19391127 -0.19060762 -0.96232384 0.037811022
0.0055070347 -0.062961712 0.25217891 0.32400292 -0.1932795 -0.92610204 0.04248878
0.0067100646 -0.063312553 0.25357294 0.46350914 -0.14846864 -0.87356532 0.040936597
0.007894055 -0.063406102 0.25393429 0.54458904 -0.11819872 -0.83033234 0.03305408
0.0090804994 -0.063492581 0.25426492 0.62066084 -0.075008228 -0.78048307 0.027249761
0.010348201 -0.064062275 0.25652811 0.69471526 0.0044586374 -0.719271 0.023086937
0.011580672 -0.064319119 0.25753596 0.68423599 0.044476889 -0.72790313 0.023578301
0.012828937 -0.064607598 0.2586678 0.70088643 0.094535418 -0.70698041 0.019129682
0.01412622 -0.065072663 0.26050377 0.73071253 0.13638586 -0.66892308 0.010842975
0.015389474 -0.065320201 0.26146594 0.73930687 0.15909369 -0.65430474 0.010344309
0.016666951 -0.065587632 0.26250476 0.75636178 0.17712764 -0.62971634 0.0098736389
0.017973648 -0.065925904 0.26382387 0.80861139 0.16100076 -0.56588537 0.010580695
0.019261707 -0.066157147 0.26471132 0.83870244 0.15676288 -0.52153963 0.0082218582
0.021079138 -0.068070211 0.27232379 0.91291302 0.15555924 -0.37734756 0.0052507813
0.022428732 -0.068341874 0.27336484 0.91879988 0.15049778 -0.36490694 0.0050397334
0.024281466 -0.070035733 0.28008977 0.95040578 0.14925148 -0.27286059 0.0067487648
-0.018297434 -0.067934476 0.27714106 -0.97013736 0.12697867 -0.20666349 0.0051910891
-0.016567409 -0.066144407 0.26987076 -0.96149391 0.093513951 -0.25842714 0.0038247551
-0.015267208 -0.065918528 0.2689786 -0.95902818 0.091893353 -0.26799354 0.004599601
-0.013610599 -0.063977279 0.26108328 -0.88728195 -0.03170171 -0.46013674 0.013559615
-0.012276131 -0.06331981 0.25842348 -0.76635176 -0.074562602 -0.6380794 0.022229901
-0.010995468 -0.062828042 0.25643709 -0.66085941 -0.10034728 -0.74377096 0.023740849
-0.0097593311 -0.062502593 0.25512698 -0.59690237 -0.1249696 -0.79252142 0.022883633
-0.0085281515 -0.062123805 0.25359672 -0.53931344 -0.146221 -0.82931328 0.01961581
-0.0073456438 -0.062035359 0.25324935 -0.50089049 -0.15280099 -0.85191584 0.017883416
-0.0061772489 -0.062055156 0.25334182 -0.45244116 -0.16793536 -0.87583941 0.016164605
-0.004992194 -0.061877701 0.25262687 -0.38354653 -0.17651325 -0.90649611 0.014742285
-0.0038214992 -0.061824262 0.25241613 -0.32743561 -0.18478549 -0.92662841 0.017421458
-0.0026674413 -0.062111255 0.25359336 -0.27667448 -0.20082587 -0.93974477 0.024305465
-0.0014906127 -0.061902322 0.25274381 -0.16027811 -0.21451512 -0.96348029 0.027591819
-0.00031952793 -0.061283011 0.25021672 -0.091298282 -0.18809129 -0.97789901 0.025799681
0.00083492365 -0.061157007 0.24970183 -0.0077422424 -0.20349388 -0.97904557 0.032288261
0.0019911821 -0.061232775 0.25000879 0.03049727 -0.1935333 -0.98061949 0.035355974
0.0031521865 -0.061345272 0.25046375 0.12483519 -0.19638528 -0.97254771 0.038583912
0.0043291086 -0.061623931 0.25159517 0.21372131 -0.19461261 -0.95731348 0.0401133
0.0055024168 -0.061744049 0.25207719 0.34918222 -0.16935219 -0.92162442 0.045809399
0.0066898745 -0.061953221 0.25292072 0.46460271 -0.15995038 -0.87095362 0.041471351
0.0079006171 -0.062283754 0.2542575 0.5861237 -0.078485906 -0.80641109 0.034711298
0.0091047594 -0.062483396 0.25505772 0.66479677 -0.032198992 -0.74633002 0.024578836
0.010348526 -0.062878013 0.25665149 0.71592736 0.0085828491 -0.69812196 0.023914557
0.011579609 -0.06312234 0.25762928 0.71709448 0.066253878 -0.6938197 0.019408109
0.012879512 -0.063661255 0.25980687 0.72097349 0.12449399 -0.68168801 0.012666401
0.014142659 -0.06394206 0.26092827 0.74229783 0.15594238 -0.65167159 0.010721043
0.015435276 -0.064301483 0.26236778 0.7540555 0.18928581 -0.62894446 0.010157536
0.016745692 -0.064677276 0.26387101 0.79386955 0.19031364 -0.57753944 0.010185125
0.017996665 -0.064788029 0.26428998 0.81876159 0.1854786 -0.54334807 0.0098119751
0.019301374 -0.065065846 0.26538739 0.84144908 0.17948563 -0.50965506 0.0079987077
0.021014016 -0.066603363 0.27161863 0.90735006 0.16023789 -0.38863823 0.0055027646
0.022398779 -0.066986807 0.27313915 0.91763306 0.15348816 -0.36659378 0.0051463088
0.024258627 -0.068674244 0.27997181 0.95017022 0.15094498 -0.2727493 0.0057102195
-0.01850426 -0.06740623 0.28039891 -0.9806428 0.1346323 -0.14217538 0.0061826026
-0.016622487 -0.065112263 0.27088687 -0.96032858 0.10941499 -0.25651002 0.0036336712
-0.01532875 -0.06493561 0.27017972 -0.96297574 0.10295511 -0.24915455 0.0038411717
-0.013633962 -0.062878028 0.26164311 -0.91175181 0.016086034 -0.4104265 0.0093327118
-0.012269654 -0.062092442 0.25839603 -0.78046215 -0.035033409 -0.62422073 0.025349118
-0.011038077 -0.061881598 0.25753802 -0.69648415 -0.058815937 -0.71515769 0.027599424
-0.0097890571 -0.061510205 0.25600955 -0.62266546 -0.097100131 -0.77644014 0.026319038
-0.008503831 -0.060777951 0.25297669 -0.51776516 -0.14110096 -0.84380668 0.020424172
-0.0073428634 -0.060841955 0.2532559 -0.50271499 -0.14957687 -0.85141319 0.017850848
-0.0061732945 -0.060845438 0.25328127 -0.4711695 -0.15303862 -0.86866468 0.019172702
-0.0049934709 -0.060725842 0.25279233 -0.39328873 -0.16775486 -0.90398145 0.015902322
-0.0038181299 -0.060604405 0.25229377 -0.33333001 -0.1697247 -0.92740744 0.01744503
-0.0026597353 -0.060763404 0.2529608 -0.26535943 -0.1763768 -0.94787949 0.022464467
-0.0014864831 -0.060566209 0.25214311 -0.16381639 -0.1930609 -0.96741492 0.028602337
-0.00031962065 -0.060144287 0.25038803 -0.097497396 -0.18016291 -0.97879297 0.027271574
0.00083739089 -0.060180534 0.25053853 0.00061675836 -0.19260138 -0.98127693 0.033000171
0.0019919458 -0.060100596 0.25020349 0.047317419 -0.19326143 -0.98000562 0.035511851
0.0031629445 -0.060393337 0.25141817 0.13970362 -0.18455927 -0.97284156 0.040694963
0.0043246578 -0.060399171 0.2514365 0.21139553 -0.181521 -0.96039689 0.039865531
0.0054980232 -0.060530812 0.2519767 0.36575186 -0.15809205 -0.91718733 0.044173267
0.0066851201 -0.06074122 0.25284284 0.50800341 -0.11052369 -0.85423476 0.042960197
0.0078942524 -0.061059479 0.25415587 0.62219465 -0.062042572 -0.78040028 0.032106947
0.0090956092 -0.061242968 0.25490579 0.67775166 -0.0099980924 -0.73522288 0.022276117
0.010312249 -0.061475497 0.25585765 0.73744136 0.03223177 -0.67464167 0.017475441
0.01161436 -0.062117327 0.25851062 0.74092221 0.090192191 -0.66550714 0.017466785
0.012859846 -0.062364846 0.25952011 0.74088472 0.1366021 -0.65759385 0.013114965
0.014125634 -0.062660202 0.26072612 0.75322461 0.1727815 -0.63466454 0.010584824
0.015493487 -0.063326299 0.26347205 0.7732296 0.19842307 -0.60228258 0.0098500457
0.016761092 -0.063515432 0.26423061 0.79370403 0.20654902 -0.57216382 0.0096406341
0.018087842 -0.063887775 0.26574841 0.83422047 0.19660081 -0.51519358 0.0082377642
0.019393891 -0.064144313 0.26678148 0.84885001 0.19623959 -0.49086013 0.0066156541
0.020942893 -0.065125652 0.27082548 0.89608198 0.18440342 -0.40377271 0.0051964452
0.022394158 -0.065709479 0.27321231 0.91421944 0.1686386 -0.36846146 0.0055136601
0.023939569 -0.066492431 0.27642313 0.93863225 0.16011269 -0.30550531 0.00588352
-0.018508412 -0.066124924 0.28057739 -0.97980428 0.16040878 -0.11938394 0.0033736848
-0.016777448 -0.064455554 0.27352297 -0.96283543 0.15586498 -0.22057648 0.004939511
-0.01500198 -0.062329318 0.26452559 -0.95006853 0.098763734 -0.29599935 0.0062696864
-0.013661334 -0.061792765 0.26227137 -0.92816871 0.056914933 -0.36778194 0.010523302
-0.012329442 -0.061195221 0.2597557 -0.84338707 0.011064607 -0.53719252 0.022302629
-0.011070153 -0.060868051 0.25838521 -0.74433577 -0.029588664 -0.66714972 0.030719914
-0.0097896606 -0.060331151 0.25612208 -0.63645709 -0.083831578 -0.76674294 0.026554151
-0.0085058538 -0.059623439 0.25313151 -0.54358202 -0.12277146 -0.8303287 0.022562288
-0.0073038246 -0.059354778 0.25200281 -0.49794328 -0.13810046 -0.85614294 0.021324916
-0.0061718565 -0.059661545 0.25331536 -0.47221249 -0.13704631 -0.87076622 0.019690664
-0.0050007482 -0.059644956 0.25325325 -0.42144251 -0.14697839 -0.89486504 0.019177638
-0.0038246047 -0.059539843 0.25281346 -0.33783206 -0.15679035 -0.92805511 0.022020804
-0.0026437799 -0.059237491 0.25153437 -0.24203658 -0.16721106 -0.95575041 0.024552621
-0.0014778535 -0.059056744 0.25076985 -0.1699487 -0.16542332 -0.97146928 0.03021243
-0.00032133117 -0.059303463 0.25181887 -0.067666367 -0.17744766 -0.98180115 0.032815762
0.00083922787 -0.059152804 0.25117868 0.0044870777 -0.18210997 -0.9832679 0.036149066
0.0019947826 -0.059028875 0.25065041 0.055360526 -0.18014225 -0.98208153 0.039276138
0.0031492321 -0.05897525 0.25041893 0.1473743 -0.16042309 -0.97598422 0.04387109
0.0043239389 -0.059227906 0.25148624 0.2313379 -0.15973811 -0.95966995 0.043582369
0.0054952805 -0.059337251 0.25194323 0.38918975 -0.13151322 -0.91172123 0.047957238
0.006684138 -0.059564479 0.25289896 0.5393979 -0.080381304 -0.83820564 0.044274062
0.0078726094 -0.059721183 0.25355333 0.61464238 -0.060589816 -0.78647536 0.034278702
0.0090705575 -0.059899893 0.25429922 0.69878995 -0.010019526 -0.71525669 0.02160012
0.010336393 -0.060434554 0.2565541 0.75503564 0.062779114 -0.6526714 0.018685004
0.011609255 -0.060896102 0.25849637 0.76225656 0.11223695 -0.63746977 0.015930679
0.012870177 -0.061214775 0.25982979 0.7654593 0.15548146 -0.62441784 0.012273895
0.014127181 -0.061462041 0.26085776 0.76950592 0.18468851 -0.61135161 0.0098429844
0.015429852 -0.061853509 0.26249525 0.77536541 0.19655207 -0.60014641 0.0095057627
0.016860923 -0.062665127 0.26591286 0.82442307 0.20619246 -0.52707809 0.0085249124
0.018155698 -0.062894344 0.2668561 0.8402397 0.20542051 -0.50179642 0.007469702
0.019479111 -0.063187316 0.268067 0.85801816 0.20399907 -0.4713695 0.0059039136
0.021016223 -0.06409701 0.27189088 0.89869267 0.19787751 -0.39140242 0.0057963515
0.022432027 -0.064554945 0.27379465 0.91530007 0.18326537 -0.35866365 0.0056453669
0.024642855 -0.067129686 0.2846714 0.96874428 0.13259125 -0.20965254 0.0055601727
-0.018451033 -0.064627506 0.2798135 -0.96691203 0.20324093 -0.15418857 0.0023691449
-0.016954316 -0.063858017 0.27650931 -0.9634856 0.1789705 -0.19916049 0.0039522992
-0.015259265 -0.062155299 0.26916069 -0.95983231 0.1525456 -0.23548211 0.0039660889
-0.013648018 -0.060522214 0.26211005 -0.93679512 0.088089727 -0.33860767 0.01076746
-0.012364228 -0.060164709 0.26058093 -0.88053 0.071576096 -0.46855497 0.017490756
-0.010987923 -0.059231404 0.25655553 -0.73263919 -0.019998899 -0.6803233 0.031727497
-0.0097698467 -0.059028588 0.25569192 -0.65265727 -0.076512769 -0.75378001 0.02647385
-0.0085593099 -0.058821827 0.25480929 -0.61755919 -0.093476161 -0.78095001 0.026720705
-0.0073328251 -0.05842213 0.25308895 -0.53269368 -0.11301076 -0.83872879 0.02603605
-0.0061626816 -0.058404882 0.25302359 -0.48333415 -0.13100538 -0.86557823 0.021914646
-0.0049964543 -0.058425345 0.25311998 -0.4171496 -0.12613565 -0.90004224 0.022484107
-0.0038240703 -0.058364362 0.25286177 -0.34774619 -0.12524234 -0.92918617 0.024053378
-0.0026436436 -0.058073096 0.25160426 -0.25546086 -0.1440898 -0.9560219 0.027597954
-0.001480719 -0.058011141 0.25133863 -0.17740859 -0.14605826 -0.97323847 0.034716517
-0.00031957054 -0.057822209 0.2505213 -0.089648947 -0.15873732 -0.98324233 0.037673943
0.00083830801 -0.057929493 0.25098577 0.0055678813 -0.17267048 -0.98496389 0.04043629
0.0019933661 -0.057830464 0.2505548 0.070989572 -0.15954456 -0.984635 0.043827593
0.0031513283 -0.057857469 0.25066829 0.15740161 -0.1525012 -0.97568852 0.044321265
0.0043157917 -0.057957277 0.25109562 0.25699937 -0.12213019 -0.9586634 0.049596179
0.0054811896 -0.058024719 0.2513811 0.40728551 -0.087894686 -0.90906167 0.05053344
0.0066611427 -0.058195762 0.2521137 0.53780711 -0.062669672 -0.84073538 0.043219607
0.0078446632 -0.058342457 0.25273904 0.62414581 -0.025080057 -0.78090525 0.036281276
0.009065398 -0.058692105 0.25424179 0.72719604 0.034066055 -0.68558401 0.023091476
0.010270495 -0.058871947 0.25500703 0.75327706 0.05463694 -0.65543002 0.017126778
0.011626462 -0.059790671 0.25897059 0.78537643 0.13974638 -0.60303795 0.014434704
0.012909835 -0.060199536 0.26072347 0.77986073 0.18317118 -0.59855288 0.011243064
0.014158819 -0.06039197 0.26153675 0.77034718 0.19953273 -0.60560042 0.0090963617
0.0154128 -0.060573794 0.26230174 0.77653581 0.20414643 -0.5960843 0.0082964581
0.016860591 -0.061435323 0.26600736 0.81639504 0.22211006 -0.53307259 0.0077734664
