# .PCD v0.7 - Point Cloud Data file format
VERSION 0.7
FIELDS x y z noise intensity gray
SIZE 4 4 4 4 2 1
TYPE F F F F U U
COUNT 1 1 1 1 1 1
WIDTH 851
HEIGHT 1
VIEWPOINT 0 0 0 1 0 0 0
POINTS 851
DATA ascii
0.091094658 -0.073134191 0.22772092 0.0018113507 477 95
0.092206858 -0.073110074 0.22726768 0.00199419 418 84
0.093109913 -0.072922729 0.22632775 0.0021022246 404 81
0.094094895 -0.072803311 0.2256218 0.001954789 429 86
0.095740966 -0.073192134 0.22651365 0.0021595396 370 74
0.096896589 -0.073201261 0.22625472 0.0024169516 358 71
0.097295903 -0.072645493 0.22427952 0.0023299546 332 66
0.097609378 -0.072039172 0.2221815 0.0023431543 324 65
0.098392308 -0.071789205 0.22121565 0.0023585798 325 65
0.10009281 -0.072206818 0.2223383 0.0025401537 296 59
0.10180264 -0.072621778 0.22348396 0.0025021366 292 58
0.1020868 -0.072021775 0.22154023 0.0026147098 276 55
0.10186148 -0.071079344 0.21857893 0.0028410184 289 58
0.10266937 -0.070870437 0.21790846 0.0026806642 273 54
0.10471793 -0.071513265 0.21989106 0.0029819207 251 50
0.10615481 -0.071729206 0.22059561 0.0030553632 226 45
0.10722566 -0.071695887 0.22056805 0.0031528864 220 44
0.10768329 -0.071257465 0.21932742 0.0031047778 226 45
0.1083158 -0.070942566 0.21849887 0.0033770821 196 39
0.10869487 -0.070469722 0.21721449 0.0035922718 184 37
0.10910574 -0.070026778 0.21605137 0.0035455255 186 37
0.10942563 -0.069534816 0.2147646 0.0038776023 166 33
0.11060169 -0.069591232 0.21519952 0.0038710178 167 33
0.11218603 -0.069900945 0.21644787 0.0039835442 160 32
0.11263753 -0.069505647 0.21554047 0.0042649214 158 31
0.10973287 -0.067066662 0.20830831 0.0045349067 138 27
-0.12117247 -0.064547852 0.20970301 0.0033475037 210 42
-0.11913683 -0.064004615 0.2074068 0.003215574 214 43
-0.11904518 -0.064505421 0.20848922 0.0031940336 218 43
-0.11807155 -0.064532831 0.20804186 0.0031293745 220 44
-0.11709229 -0.064557642 0.20759609 0.0033613336 203 40
-0.1172657 -0.065224007 0.20922197 0.0031969494 215 43
-0.1168978 -0.06559848 0.20991987 0.0031559959 231 46
-0.11563767 -0.065474495 0.2090389 0.0032073194 224 45
-0.11461432 -0.065483555 0.20860282 0.0032148939 223 44
-0.11465938 -0.066108786 0.21014567 0.0029566076 234 47
-0.11449207 -0.066621967 0.21134627 0.0028746321 242 48
-0.11379242 -0.066832095 0.21160343 0.0032327098 246 49
-0.11305144 -0.067021653 0.21181665 0.0032918889 234 47
-0.11266159 -0.067424968 0.21272677 0.0033236735 238 47
-0.11212711 -0.067748636 0.21340746 0.0030594836 251 50
-0.1115538 -0.06805487 0.21405695 0.0028582208 251 50
-0.11152171 -0.068700492 0.21579772 0.0025946086 283 56
-0.11098035 -0.069042064 0.21660838 0.0029493393 267 53
-0.11077167 -0.069599457 0.21812311 0.0026465845 276 55
-0.10946361 -0.069470383 0.21751621 0.002925135 276 55
-0.10806138 -0.0692783 0.21674488 0.0025873999 294 59
-0.10756907 -0.069671601 0.21783732 0.0026566132 302 60
-0.10702021 -0.070036098 0.2188718 0.0024539751 328 65
-0.10625499 -0.070265144 0.21951638 0.0024825702 340 68
-0.10536451 -0.070415348 0.21994896 0.0024316465 353 70
-0.10405058 -0.070282735 0.21953306 0.0022304023 351 70
-0.10340204 -0.070601583 0.22056234 0.0022186402 354 71
-0.1027129 -0.070899382 0.22156118 0.0021447509 386 77
-0.1019588 -0.071158439 0.22247435 0.0021760876 413 83
-0.10004409 -0.070604227 0.22087832 0.0018847785 450 90
-0.10092074 -0.072029732 0.22551109 0.0019273622 438 88
-0.10005075 -0.072226979 0.22633508 0.0020426027 399 80
-0.098674297 -0.072058968 0.22604586 0.0019157508 445 89
-0.097758643 -0.072227448 0.22684214 0.0019225393 438 88
-0.096794501 -0.072363682 0.22756645 0.0018107434 474 95
-0.095526062 -0.072272964 0.22760333 0.0019207879 440 88
-0.094202854 -0.072138108 0.22752433 0.0018578038 465 93
-0.092951708 -0.072055787 0.22763182 0.0017581008 503 101
-0.091811396 -0.072058402 0.22802681 0.0017275254 537 107
-0.091093823 -0.072397076 0.22950433 0.0019085503 490 98
-0.090035647 -0.072470233 0.23015749 0.0017229997 521 104
-0.088659301 -0.072285868 0.23000479 0.0017843205 522 104
-0.087500766 -0.0722766 0.23041838 0.0016810489 536 107
-0.086250775 -0.072190508 0.23059469 0.001640241 560 112
-0.084879987 -0.071999654 0.23044066 0.0017371728 565 113
-0.083785258 -0.07204096 0.23103285 0.0017442474 539 108
-0.082078993 -0.071550317 0.22991847 0.0016015379 579 116
-0.081255309 -0.071826056 0.23126601 0.0016202681 575 115
-0.080595747 -0.072256781 0.23311616 0.0017134934 562 113
-0.078631207 -0.071513101 0.2311731 0.0016326656 610 122
-0.077464469 -0.071483858 0.2315309 0.0016487271 610 122
-0.076918855 -0.072035417 0.23376845 0.0015961449 581 116
-0.075987488 -0.07223691 0.23486894 0.0016154584 577 116
-0.075352162 -0.072730333 0.23691623 0.0015492697 614 123
-0.074358389 -0.072887726 0.23786539 0.0014706028 676 135
-0.072135091 -0.071825854 0.2348222 0.0011131281 1059 212
-0.070808701 -0.071637288 0.23461823 0.0014495059 682 137
-0.069782861 -0.071751595 0.23539679 0.0020688076 389 78
-0.068583861 -0.071688689 0.235585 0.0024418756 312 62
-0.067365341 -0.071602918 0.23568763 0.0025724082 288 57
-0.065526091 -0.070843101 0.23355728 0.0026165261 324 65
-0.06394545 -0.070341237 0.23226097 0.002046108 396 79
-0.062400248 -0.069861203 0.23102191 0.0019431605 461 92
-0.06083012 -0.069335394 0.22961667 0.0018084778 484 97
-0.059296489 -0.068832576 0.2282728 0.0013803717 752 151
-0.058107708 -0.068718694 0.22820619 0.00090989243 1529 255
nan nan nan 0 2195 255
nan nan nan 0 2033 255
-0.054376442 -0.068143226 0.22716281 0.0009832487 1353 255
-0.053274062 -0.06811659 0.2273443 0.001448806 752 151
-0.05218811 -0.068110295 0.22758433 0.0015441547 621 124
-0.051067352 -0.068057351 0.22765915 0.0016138988 584 117
-0.050173186 -0.068310618 0.22875005 0.00160472 608 122
-0.049310829 -0.068619348 0.23001981 0.0015961094 591 118
-0.048300579 -0.068731554 0.2306236 0.0018303387 491 98
-0.047369428 -0.068964109 0.23162387 0.0019154015 453 91
-0.047288578 -0.070474893 0.23691419 0.0021600814 371 74
-0.046061452 -0.07030917 0.23656444 0.0023188635 334 67
-0.046536356 -0.072797738 0.24514386 0.0031685012 243 48
-0.045701005 -0.073311187 0.24707235 0.0031668365 220 44
-0.044612579 -0.073434889 0.24768099 0.0022893066 386 77
-0.043522783 -0.073562905 0.24829693 0.0018740309 461 92
-0.04228032 -0.073432833 0.24803415 0.0018963838 455 91
-0.04087868 -0.073011085 0.24677737 0.0018339544 486 97
-0.039721113 -0.073013373 0.24694569 0.0020172256 441 88
-0.038624603 -0.073131397 0.24749869 0.0020658821 458 92
-0.037580978 -0.073359981 0.24841969 0.0020176973 451 90
-0.036388479 -0.073303275 0.24836831 0.0017611763 503 101
-0.035141613 -0.073129684 0.24791403 0.0019554775 448 90
-0.033931173 -0.073022626 0.24767855 0.0017757872 500 100
-0.032877866 -0.073258124 0.24859905 0.0017905971 495 99
-0.031879608 -0.073638044 0.25000471 0.0019392301 446 89
-0.03085845 -0.073991969 0.2513175 0.0019430479 448 90
-0.029659588 -0.073930949 0.25121567 0.001843004 477 95
-0.028575689 -0.074163258 0.25210539 0.0019607367 473 95
-0.027536511 -0.074536592 0.25346991 0.002151052 432 86
-0.02603595 -0.073638484 0.25050503 0.0020118807 431 86
-0.024948096 -0.073878102 0.25140461 0.0019343358 446 89
-0.023757022 -0.073820613 0.25128853 0.0019687358 421 84
-0.022480968 -0.073479399 0.25020152 0.0019057599 450 90
-0.021282833 -0.073369466 0.24989699 0.0020255577 420 84
-0.020149486 -0.073483087 0.25034943 0.0020422922 422 84
-0.019015925 -0.073609829 0.25084248 0.002144767 409 82
-0.017864671 -0.073680192 0.25113934 0.002003215 417 83
-0.016732793 -0.073845915 0.25175726 0.0019418213 435 87
-0.015432276 -0.073236331 0.24972768 0.0019674983 429 86
-0.01440386 -0.073923893 0.25211737 0.0020033538 415 83
-0.013204058 -0.073775806 0.25165349 0.0020221737 409 82
-0.012055906 -0.073915586 0.25216776 0.0020435618 402 80
-0.010911025 -0.074107707 0.25285712 0.0020282131 412 82
-0.0097401226 -0.074148178 0.25302541 0.0021141886 402 80
-0.0085661709 -0.074173354 0.25313798 0.0019892766 419 84
-0.0074001937 -0.07428661 0.25354767 0.0020453676 415 83
-0.0062202434 -0.074275941 0.25353089 0.0020392642 410 82
-0.0050629834 -0.07459458 0.25463477 0.0020697899 401 80
-0.0038795981 -0.074605346 0.25468436 0.0020017214 414 83
-0.0026998022 -0.074724913 0.25510192 0.0020863293 409 82
-0.0015113611 -0.074605078 0.25469884 0.0023191839 371 74
-0.00032654603 -0.074444689 0.25415388 0.0021844499 371 74
0.00085136952 -0.074126862 0.25306809 0.0022836926 391 78
0.0020265726 -0.074078672 0.25289944 0.0020988116 387 77
0.0032094584 -0.07424359 0.25345501 0.0021661376 398 80
0.0044038459 -0.074514538 0.25436908 0.0019807108 425 85
0.0055721723 -0.07432317 0.25370145 0.0019992644 416 83
0.0067229858 -0.074005887 0.25260076 0.0018760068 458 92
0.0079413913 -0.074416362 0.25398058 0.0019884396 425 85
0.0091479672 -0.074624047 0.25466454 0.0022078513 402 80
0.010335151 -0.074644059 0.25470445 0.0021429937 372 74
0.011497434 -0.074498609 0.25417611 0.0021249908 394 79
0.012647852 -0.074310578 0.25349894 0.0020223674 408 82
0.013819513 -0.074268788 0.25331697 0.0019851893 422 84
0.015048161 -0.07451576 0.25411603 0.0019838079 416 83
0.016209098 -0.074415877 0.25372824 0.0019566512 432 86
0.017335476 -0.074181661 0.25287858 0.0020776547 394 79
0.018450223 -0.073930643 0.25196794 0.0020072965 451 90
0.01962452 -0.073934004 0.25192019 0.0019206838 445 89
0.020788722 -0.073901087 0.25174466 0.0019358132 443 89
0.022037245 -0.074155435 0.252543 0.00208773 426 85
0.023302218 -0.074436545 0.25342748 0.0019543883 432 86
0.024448073 -0.074328355 0.25298163 0.0018683196 463 93
0.025560843 -0.074134178 0.25223872 0.0019446611 439 88
0.026702082 -0.074036039 0.25181794 0.0019405759 476 95
0.027832143 -0.073916465 0.25131944 0.0019538556 463 93
0.029031616 -0.073983476 0.25145012 0.0018757912 457 91
0.030308586 -0.074235082 0.25220248 0.0019401734 438 88
0.031350486 -0.073913634 0.25100246 0.0019092818 459 92
0.032374877 -0.073575601 0.24974139 0.0018871123 492 98
0.033479787 -0.073437713 0.24915461 0.0019154927 471 94
0.034648497 -0.073444322 0.2490523 0.0018054568 486 97
0.035917912 -0.073657051 0.24964228 0.0018094365 495 99
0.037101239 -0.073685385 0.24960051 0.0018225912 485 97
0.038072743 -0.073304124 0.24816549 0.0019261182 443 89
0.039194971 -0.073227093 0.24775453 0.0019601879 476 95
0.040596813 -0.073661841 0.24906738 0.0019657509 448 90
0.04166045 -0.073475763 0.24827342 0.0018640618 469 94
0.04260768 -0.073100112 0.24683277 0.0019895541 446 89
0.043762323 -0.073090792 0.24662255 0.0019941772 419 84
0.044923723 -0.073092945 0.24644332 0.0018772217 487 97
0.046113674 -0.073140271 0.24640833 0.0019175588 459 92
0.047088318 -0.072852165 0.24523582 0.0017185971 519 104
0.048338428 -0.072993837 0.24550213 0.0018955899 487 97
0.049630072 -0.07319013 0.24594258 0.0019427307 480 96
0.050824422 -0.073237248 0.24587233 0.0017482698 545 109
0.051849339 -0.073043562 0.24498519 0.0017502125 546 109
0.052919321 -0.072920442 0.24432658 0.0018144376 521 104
0.05382349 -0.072579019 0.24292886 0.0017510176 512 102
0.05493788 -0.072529413 0.24249987 0.0018781463 515 103
0.056133758 -0.072587237 0.24242039 0.0017409083 509 102
0.05728054 -0.072580509 0.24211542 0.0016899023 537 107
0.058491029 -0.072653189 0.2420651 0.0016999119 530 106
0.059954833 -0.073031627 0.24302167 0.0017120808 560 112
0.060466852 -0.072258309 0.24013719 0.0017368549 563 113
0.061408505 -0.072017647 0.23901702 0.0016497307 581 116
0.062456202 -0.071907863 0.23832271 0.0015974471 590 118
0.063666068 -0.071985401 0.23823899 0.0016064951 626 125
0.064812645 -0.071989879 0.23790301 0.0015886766 668 134
0.065805495 -0.071826436 0.23700263 0.0014846609 661 132
0.066562496 -0.071415499 0.2352785 0.0013831678 755 151
0.067857347 -0.071585722 0.2354603 0.0014846623 671 134
0.068989277 -0.071581312 0.23505713 0.0014134998 707 142
0.069962747 -0.07141529 0.23411465 0.0014457941 720 144
0.071697645 -0.072019391 0.23568526 0.0014543639 677 136
0.072891295 -0.072069399 0.23543 0.0014053059 722 145
0.073836721 -0.071876243 0.23437296 0.0013606893 750 150
0.074321024 -0.071246892 0.23189077 0.0013464604 770 154
0.075371012 -0.071170576 0.23120585 0.0014251833 732 147
0.076396465 -0.071073681 0.23044902 0.0014135254 704 141
0.07725621 -0.070827685 0.22920565 0.0014508431 726 146
0.078819372 -0.071224391 0.23003696 0.0015231885 691 138
0.080248646 -0.071490593 0.2304395 0.0015403038 621 124
0.08148285 -0.071578033 0.23026176 0.0014763239 664 133
0.082229644 -0.071240775 0.2287192 0.0016359991 563 113
0.083492942 -0.071354084 0.22862591 0.0015784544 596 119
0.084816009 -0.071514748 0.22868563 0.0015572843 599 120
0.086116143 -0.071652099 0.22867389 0.0016858899 536 107
0.08749412 -0.071849793 0.22885954 0.0018065076 519 104
0.088605739 -0.071826473 0.2283493 0.0017866842 502 100
0.089297608 -0.071467817 0.22678642 0.0018190906 515 103
0.090477414 -0.071503758 0.22649123 0.0017011696 524 105
0.091911539 -0.071737312 0.22683626 0.0018560821 464 93
0.093218639 -0.07186722 0.22686976 0.00196974 423 85
0.094516888 -0.071987256 0.22689144 0.0020663077 392 78
0.095734686 -0.072043881 0.22673514 0.0021620516 366 73
0.096836813 -0.072013132 0.22632875 0.0020852601 386 77
0.097529247 -0.071681999 0.22500667 0.0023045898 334 67
0.097738639 -0.071007565 0.22263937 0.0023082295 334 67
0.098211072 -0.070537426 0.22094655 0.0023380546 358 71
0.099629387 -0.070749588 0.22142309 0.002361106 326 65
0.10140572 -0.071208417 0.22270264 0.0022597972 348 69
0.10183709 -0.070723116 0.221063 0.0025968049 301 60
0.10281353 -0.070622787 0.22066203 0.0029497803 269 54
0.10311891 -0.070068642 0.21887828 0.0026736441 272 54
0.10409618 -0.069977991 0.21857762 0.0027595884 262 52
0.10609107 -0.070566125 0.2204321 0.0030915914 221 44
0.10644608 -0.0700626 0.21891113 0.0031210091 221 44
0.10723542 -0.069852412 0.21834049 0.0031983715 217 43
0.1081493 -0.069726825 0.21806768 0.0032866285 204 41
0.10886644 -0.069478214 0.21744256 0.003491787 189 38
0.10896786 -0.068845585 0.21564576 0.0037144267 176 35
0.11009094 -0.068864591 0.21591985 0.0040634531 183 36
0.11130039 -0.068936713 0.2163913 0.0038930909 166 33
0.11200339 -0.068696812 0.21591228 0.0043387013 159 31
0.11230634 -0.068218529 0.21470959 0.0040779999 157 31
0.11096409 -0.066759564 0.21043873 0.0048685623 146 29
-0.11779281 -0.0617516 0.20357955 0.0033723668 202 40
-0.11882779 -0.062825359 0.20658299 0.0032091092 217 43
-0.11890179 -0.063405141 0.20794877 0.0031460572 217 43
-0.11829116 -0.063626707 0.20814107 0.0032313417 213 42
-0.11779135 -0.063912295 0.20855132 0.0031012904 226 45
-0.11797923 -0.06457936 0.21021436 0.0031940453 212 42
-0.11802659 -0.065180689 0.21167119 0.0031711296 229 46
-0.11547106 -0.064342469 0.20847385 0.0033082222 237 47
-0.11472922 -0.064508818 0.20855649 0.0028583952 249 50
-0.11487515 -0.065181941 0.21029285 0.003057515 227 45
-0.11503175 -0.065873615 0.21210234 0.0031321286 218 43
-0.1145431 -0.066205233 0.21276946 0.0030919202 242 48
-0.11373881 -0.066358946 0.21288648 0.0028020728 253 50
-0.11288936 -0.066488966 0.21295151 0.0028284236 273 54
-0.11224669 -0.066744447 0.21344297 0.0028041939 290 58
-0.11162385 -0.067016773 0.21401352 0.0026791447 276 55
-0.11074576 -0.067139678 0.21413389 0.0025820786 281 56
-0.11099604 -0.067955844 0.21649164 0.0027699617 299 60
-0.10981555 -0.067903586 0.21611105 0.0024880173 302 60
-0.10903377 -0.06809929 0.21655111 0.0025199957 297 59
-0.10791789 -0.068088196 0.21636577 0.002376616 321 64
-0.10735645 -0.068430275 0.21733561 0.0026867928 305 61
-0.10692831 -0.068865307 0.21863374 0.0024656227 320 64
-0.10627525 -0.069163099 0.21953024 0.0021916691 358 71
-0.10468779 -0.068852648 0.2185313 0.0022208286 356 71
-0.1042458 -0.069297001 0.21996348 0.0024146636 341 68
-0.10360961 -0.06962049 0.2210478 0.0023166132 384 77
-0.10293358 -0.069923989 0.22210461 0.0021558288 410 82
-0.10278768 -0.070598334 0.2243759 0.0020768996 425 85
-0.10198598 -0.070832312 0.22528385 0.0021769258 378 76
-0.099995658 -0.070236713 0.22358572 0.0018857045 449 90
-0.099160604 -0.07044822 0.2244879 0.0019639798 459 92
-0.098681584 -0.070920497 0.22625405 0.0019434909 459 92
-0.097741537 -0.071068622 0.22701755 0.0019088775 445 89
-0.096664488 -0.07111948 0.22749838 0.0019120404 444 89
-0.095609635 -0.071188092 0.22806171 0.0018551893 468 94
-0.094223082 -0.071008392 0.2278519 0.0018893435 452 90
-0.093186475 -0.071091242 0.2285047 0.0018983333 498 100
-0.092220485 -0.071230702 0.22935896 0.0018245538 498 100
-0.091154382 -0.071295366 0.22998944 0.0016725201 575 115
-0.089648515 -0.071013339 0.22951376 0.0016928097 534 107
-0.088486828 -0.071000166 0.22991624 0.0016434742 555 111
-0.087311409 -0.070975505 0.23029023 0.001652624 543 109
-0.086132497 -0.070947297 0.23065907 0.001634192 608 122
-0.085031867 -0.070983686 0.2312426 0.0016211664 575 115
-0.083397232 -0.070569195 0.23035762 0.0016840373 602 121
-0.082171462 -0.070494004 0.23057792 0.0016603653 599 120
-0.081041977 -0.070500463 0.23106425 0.001553677 614 123
-0.080515854 -0.071039438 0.23329739 0.0016160266 577 116
-0.078628063 -0.070375249 0.231575 0.0015424523 615 123
-0.077728666 -0.0705892 0.23273471 0.0016402295 589 118
-0.076971151 -0.070940278 0.23434453 0.001586456 596 119
-0.07588686 -0.070996247 0.23497547 0.001624393 613 123
-0.074876599 -0.071124248 0.23583862 0.0015776235 595 119
-0.074578941 -0.071943626 0.23899204 0.0015283278 626 125
-0.071864098 -0.07042031 0.23435032 0.001294296 836 168
-0.070541859 -0.070234597 0.23414087 0.0014441942 725 145
-0.069618985 -0.070446946 0.23524916 0.0019542798 433 87
-0.068780504 -0.07075315 0.23666406 0.0024051277 314 63
-0.067573555 -0.070684247 0.23681565 0.0025681942 291 58
-0.065728709 -0.069934271 0.23467086 0.002416403 312 62
-0.063743345 -0.069006003 0.23190898 0.0022248114 377 75
-0.061983656 -0.068293378 0.22985339 0.0019177684 458 92
-0.060632046 -0.068012722 0.22923678 0.0018066568 492 98
-0.059348077 -0.067799009 0.22883344 0.0016459688 624 125
-0.058146603 -0.067673281 0.22871555 0.00099733437 1326 255
nan nan nan 0 2301 255
nan nan nan 0 1914 255
-0.054493599 -0.067206159 0.22799189 0.0013617461 764 153
-0.053452887 -0.067260481 0.2284424 0.0016172415 644 129
-0.052151799 -0.066982634 0.22775459 0.0015442037 620 124
-0.051157638 -0.06709557 0.22838579 0.0017028756 570 114
-0.05040513 -0.067537189 0.23012885 0.0016556052 554 111
-0.049364392 -0.067603581 0.23058631 0.0015765203 598 120
-0.048320677 -0.067668803 0.23103157 0.0018112985 535 107
-0.047511823 -0.068073548 0.23262905 0.0018965945 455 91
-0.047010858 -0.068948999 0.23583072 0.0020921768 391 78
-0.046588466 -0.069984913 0.23957872 0.0023306231 346 69
-0.04590296 -0.070667192 0.2421129 0.0030045866 248 49
-0.046081685 -0.072748579 0.24944001 0.0032095823 220 44
-0.04482339 -0.072610833 0.24915546 0.0024515195 340 68
-0.04355773 -0.072453454 0.24879493 0.0020666316 456 91
-0.042301644 -0.072303765 0.24845245 0.002074162 415 83
-0.041045934 -0.072146252 0.24807505 0.0018927918 461 92
-0.039916489 -0.072207958 0.24844405 0.0022438301 409 82
-0.038762797 -0.072228178 0.24866353 0.0019342803 439 88
-0.037534434 -0.072106205 0.24838655 0.0020391948 458 92
-0.036322586 -0.072009183 0.24818856 0.0018427535 497 99
-0.035038114 -0.071757026 0.24744877 0.0017995292 489 98
-0.033982005 -0.071971282 0.2483113 0.0018730977 459 92
-0.033043437 -0.072458453 0.2501106 0.0020670574 423 85
-0.031998962 -0.0727406 0.25119752 0.0020833809 423 85
-0.030899167 -0.072913662 0.25190288 0.0019969356 423 85
-0.029818658 -0.073147736 0.25281399 0.0020632555 401 80
-0.028628444 -0.073120899 0.25281832 0.0021676617 406 81
-0.027496237 -0.073246278 0.25334382 0.0020293177 408 82
-0.026375681 -0.073415339 0.25401571 0.0020501306 414 83
-0.025047511 -0.072995245 0.252644 0.0021333538 414 83
-0.023774989 -0.072703883 0.25171226 0.0022196749 416 83
-0.022548359 -0.072529934 0.25118196 0.0019952976 417 83
-0.021351069 -0.072436459 0.25092566 0.0022284845 409 82
-0.020331753 -0.072970934 0.25284067 0.0020973519 396 79
-0.019255619 -0.073354624 0.25422972 0.0020970956 389 78
-0.017974045 -0.072954677 0.25289884 0.0021186743 383 77
-0.016820764 -0.073055938 0.25330105 0.0020808142 392 78
-0.01566706 -0.073170453 0.25374556 0.0021240159 408 82
-0.014450964 -0.072988503 0.25315803 0.0020574634 396 79
-0.013249388 -0.072854109 0.25273156 0.0021037881 390 78
-0.01210733 -0.073052689 0.25345656 0.0021185852 380 76
-0.011013938 -0.073619381 0.25545549 0.0022201193 356 71
-0.0097925626 -0.073364183 0.25459906 0.0021729951 392 78
-0.0086012166 -0.073294736 0.25438368 0.0020758121 395 79
-0.0074582915 -0.073681511 0.25574842 0.0021420964 375 75
-0.0062226341 -0.073125139 0.2538361 0.0022849757 380 76
-0.0050411909 -0.073094659 0.25374579 0.0023617272 366 73
-0.0038826384 -0.073478773 0.25509152 0.0020846911 393 79
-0.0026984559 -0.07350222 0.255182 0.0022845869 397 79
-0.0015154681 -0.073620483 0.25559828 0.0020838715 393 79
-0.00032694326 -0.073352233 0.25466949 0.0021411767 372 74
0.00085446029 -0.073215179 0.25419289 0.0020579041 397 79
0.0020305749 -0.073046893 0.25360468 0.0020432847 402 80
0.0032205039 -0.073316678 0.25453416 0.0021127588 396 79
0.0044072377 -0.073388353 0.25477251 0.0020915056 394 79
0.0055980608 -0.073483348 0.25508857 0.0021561077 392 78
0.0067990827 -0.073655643 0.25566953 0.0020855626 394 79
0.0080138221 -0.073903196 0.25650832 0.0020782754 403 81
0.0091794822 -0.07369262 0.25575361 0.002105095 384 77
0.010348091 -0.073551305 0.25523582 0.0021347417 381 76
0.011531725 -0.073534846 0.25514793 0.0021957303 361 72
0.012694993 -0.073403709 0.25465867 0.0020101913 411 82
0.013872735 -0.073371492 0.25450894 0.0020309072 410 82
0.015082267 -0.073499262 0.2549105 0.0020868641 401 80
0.016325923 -0.073762581 0.2557781 0.0020939 389 78
0.017478794 -0.07360781 0.25519198 0.0021220585 391 78
0.01860824 -0.073380373 0.25435019 0.0020969962 388 78
0.019685294 -0.072985865 0.25292572 0.001974144 427 85
0.020891743 -0.073088557 0.25322029 0.0020026788 415 83
0.022158179 -0.073378935 0.25416049 0.0021542946 402 80
0.023398813 -0.07355877 0.25471288 0.0020958022 390 78
0.024549032 -0.073450699 0.25426379 0.0021097725 423 85
0.025588114 -0.073035382 0.25274688 0.0019073971 444 89
0.02675315 -0.073000297 0.25254154 0.0021497475 428 86
0.028021753 -0.073238865 0.25327766 0.0020801043 428 86
0.029170208 -0.073156804 0.25289965 0.0020057117 434 87
0.030367741 -0.073199421 0.25294745 0.0018698263 461 92
0.031548865 -0.073200785 0.25284714 0.0019449205 441 88
0.03252748 -0.072749123 0.25117707 0.0019909074 461 92
0.033643194 -0.072624862 0.25063258 0.0018675274 460 92
0.034891311 -0.072785154 0.25106409 0.0019047523 449 90
0.036179345 -0.073015593 0.25173077 0.0021418026 435 87
0.037349243 -0.073000588 0.25154456 0.0020050374 417 83
0.038321357 -0.072611727 0.25006437 0.0020282038 409 82
0.03953493 -0.072689913 0.25018653 0.001951925 432 86
0.040705223 -0.072686277 0.25002009 0.0020098938 449 90
0.041782238 -0.072520956 0.2492907 0.0019593034 463 93
0.042939052 -0.07249938 0.24904862 0.002049994 441 88
0.043914843 -0.072181404 0.24778171 0.0019620205 468 94
0.045313302 -0.072556622 0.2488865 0.001924553 436 87
0.046248816 -0.072190344 0.24743994 0.001850987 467 93
0.047350161 -0.072094545 0.24691354 0.0018559026 464 93
0.048588287 -0.072206609 0.2470908 0.001932434 444 89
0.049841665 -0.072335549 0.24731655 0.0018296213 474 95
0.050912492 -0.072199725 0.24662839 0.0018967077 497 99
0.051963586 -0.072042629 0.24585952 0.0019637716 479 96
0.05298901 -0.071857579 0.24498726 0.0020490631 453 91
0.054096051 -0.071788758 0.24450295 0.0018074056 482 96
0.055279259 -0.071821786 0.24435614 0.0019304396 488 98
0.056377728 -0.071745612 0.24382836 0.0018323546 476 95
0.057550043 -0.071764603 0.24361427 0.0018837618 458 92
0.058749512 -0.071816027 0.24350011 0.0016812278 542 108
0.059837211 -0.071731485 0.24291499 0.0016991467 567 114
0.060764477 -0.071461461 0.24169295 0.0017112563 523 105
0.061619081 -0.071117632 0.24021368 0.0017111426 529 106
0.062742956 -0.071091466 0.23979868 0.001755738 521 104
0.063855089 -0.071053185 0.23933269 0.0017070198 576 115
0.0650599 -0.071117558 0.23920193 0.001575691 605 121
0.066184506 -0.071093552 0.23876323 0.0016239715 570 114
0.066962227 -0.07070408 0.23708889 0.0015270652 629 126
0.067850485 -0.070442416 0.23583636 0.0016193554 629 126
0.068997405 -0.07045348 0.23548813 0.0015525031 649 130
0.07031545 -0.070636101 0.23570248 0.00153623 660 132
0.071824491 -0.071001709 0.23651457 0.0015811577 611 122
0.073078632 -0.07110782 0.23645027 0.0015694998 663 133
0.074098915 -0.070986621 0.23562133 0.0014916391 663 133
0.074965723 -0.070724294 0.23431794 0.0014916547 654 131
0.075526044 -0.070185043 0.23209426 0.0015497593 658 132
0.076719061 -0.070240974 0.23183487 0.0015099791 642 129
0.077842824 -0.070232794 0.23135746 0.0015943858 621 124
0.078988411 -0.070244268 0.23093963 0.0014032096 719 144
0.080348954 -0.070443846 0.23113479 0.0015578801 628 126
0.081500389 -0.070457116 0.23071441 0.0016606954 590 118
0.082071722 -0.069975413 0.22867489 0.0015419484 616 123
0.083141007 -0.069925569 0.2280502 0.0015934353 629 126
0.084704287 -0.070286982 0.22876646 0.0018100763 518 104
0.085988648 -0.070410453 0.22870867 0.0016828571 536 107
0.087445863 -0.070670396 0.2290972 0.0017229469 532 106
0.088248767 -0.070401676 0.2277796 0.0017636168 526 105
0.089244433 -0.070291609 0.22698748 0.0017188096 516 103
0.090750918 -0.070581585 0.2274981 0.001873404 500 100
0.09223178 -0.070844702 0.22793336 0.0018776389 458 92
0.093317084 -0.070801258 0.22739786 0.0018562627 462 92
0.094512127 -0.070841119 0.22714922 0.0019897216 411 82
0.095766693 -0.070924111 0.22705981 0.0021863978 385 77
0.097038984 -0.071018115 0.2270287 0.0022936354 372 74
0.097728722 -0.070688561 0.22567061 0.0023934892 373 75
0.097864404 -0.069970474 0.22310431 0.0021684137 373 75
0.098671429 -0.069743261 0.22213633 0.0023474703 351 70
0.10026179 -0.07006862 0.22295909 0.0023164267 332 66
0.10152188 -0.070158496 0.2230638 0.0022428597 346 69
0.10222747 -0.069867417 0.22199139 0.0025424303 307 61
0.10327639 -0.069814771 0.22171174 0.002588904 300 60
0.10361782 -0.069290146 0.219969 0.0025178965 293 58
0.10435291 -0.069037169 0.21912459 0.0029599827 268 53
0.10526833 -0.068907559 0.21870729 0.002783336 262 52
0.10599404 -0.068657778 0.21794373 0.0029891783 238 47
0.10675125 -0.068433352 0.21729524 0.0032015522 237 47
0.10796357 -0.068502299 0.21761264 0.0034750451 213 42
0.10788368 -0.067758232 0.21537997 0.0034378883 217 43
0.10829961 -0.067337379 0.21420518 0.003427689 196 39
0.10999357 -0.067711651 0.21559186 0.0039675352 162 32
0.11142237 -0.06791693 0.21647356 0.0037965861 181 36
0.11212815 -0.067681782 0.21598189 0.004587777 161 32
0.1116555 -0.066746712 0.21328139 0.0041831573 152 30
0.10957962 -0.064880252 0.20762023 0.0044147293 142 28
-0.11883623 -0.061293874 0.20510618 0.0031968686 209 42
-0.11833205 -0.061554264 0.2054401 0.0032566758 233 46
-0.1188588 -0.062359996 0.20758998 0.0032914854 210 42
-0.11883185 -0.062886693 0.20881043 0.0035157674 217 43
-0.11790179 -0.062940508 0.20847034 0.0029354696 242 48
-0.11807661 -0.063590296 0.2101154 0.0034154246 233 46
-0.11807347 -0.064154945 0.21148834 0.0032506848 241 48
-0.11671709 -0.063987881 0.21046595 0.0031342118 241 48
-0.11526628 -0.063765541 0.20928557 0.0029102145 260 52
-0.1149307 -0.064161725 0.21015598 0.0028152072 268 53
-0.11554886 -0.065102585 0.21282485 0.0032244166 240 48
-0.1152165 -0.06552045 0.21379982 0.0029209703 261 52
-0.11479081 -0.0658926 0.2146465 0.0025809384 288 57
-0.11464975 -0.06643676 0.21607523 0.0026610792 272 54
-0.11372031 -0.066530131 0.21606244 0.0026918324 267 53
-0.111393 -0.065799594 0.2134055 0.0026612901 316 63
-0.11129171 -0.066382527 0.21503903 0.0024743248 304 61
-0.11033284 -0.066460401 0.21506467 0.002509533 299 60
-0.11000581 -0.066924214 0.21636932 0.0023359142 326 65
-0.10922688 -0.067119673 0.21683732 0.0023112458 333 66
-0.10850828 -0.067356586 0.21747191 0.002409558 318 63
-0.10801488 -0.067739584 0.21861157 0.0022141056 352 70
-0.10727505 -0.067974389 0.21930736 0.0024754338 353 70
-0.10597395 -0.06785474 0.21889506 0.0023634185 366 73
-0.1048939 -0.067875594 0.21897182 0.0022926475 388 78
-0.10470906 -0.068482384 0.220975 0.0020974376 384 77
-0.1040923 -0.068816774 0.22213602 0.0021485516 371 74
-0.10325088 -0.06900835 0.22287241 0.0020200592 412 82
-0.10256608 -0.069309995 0.22400028 0.0021582954 414 83
-0.1024375 -0.069998495 0.2264152 0.0019965987 411 82
-0.1003584 -0.069354631 0.2245537 0.0019794242 424 85
-0.099578701 -0.069604293 0.22561568 0.0018967768 452 90
-0.098473251 -0.069629401 0.22598095 0.0019097606 467 93
-0.097510971 -0.069757521 0.22670935 0.001814833 473 95
-0.096570767 -0.069904663 0.22752707 0.0017828406 488 98
-0.095324546 -0.06983114 0.22765091 0.0017815707 494 99
-0.094151907 -0.06981042 0.22796801 0.001778175 503 101
-0.093228959 -0.069976591 0.22891551 0.0017391224 526 105
-0.092076257 -0.069972299 0.22932324 0.0017129307 529 106
-0.091009125 -0.070033759 0.22996114 0.0016346981 562 113
-0.089850135 -0.070025191 0.23038146 0.0017769823 491 98
-0.088055365 -0.069514483 0.22915602 0.0015818069 590 118
-0.086790957 -0.069414586 0.22928824 0.0016200679 571 114
-0.085776798 -0.069514818 0.23008668 0.001657353 611 122
-0.08453536 -0.069431089 0.23027968 0.0015889161 638 128
-0.083484843 -0.06950403 0.23099369 0.0015921821 591 118
-0.082451947 -0.069593847 0.23176463 0.001711431 589 118
-0.081923775 -0.070118174 0.23398498 0.0016681209 578 116
-0.080665678 -0.070023805 0.23414044 0.0015268932 626 125
-0.079294257 -0.069826908 0.23394671 0.0016257009 566 113
-0.077616662 -0.06935069 0.23280716 0.0015768234 623 125
-0.076667219 -0.069520593 0.23382814 0.0016299197 572 115
-0.075786002 -0.0697584 0.23507291 0.0016062058 599 120
-0.074547105 -0.069669232 0.23520872 0.0015451171 615 123
-0.073308423 -0.069577493 0.23532611 0.0015958531 639 128
-0.072425805 -0.069826134 0.23658657 0.0014483378 684 137
-0.07065852 -0.069216162 0.23492622 0.0012998189 819 164
-0.069530271 -0.069222473 0.23534423 0.0020498808 433 87
-0.069253728 -0.070091017 0.23868845 0.0023342138 332 66
-0.06773375 -0.069709145 0.237767 0.0025112676 297 59
-0.065604456 -0.068676323 0.23460719 0.0024321217 314 63
-0.063728206 -0.06787698 0.23222505 0.0020949582 384 77
-0.062084612 -0.067301407 0.23059127 0.0019764085 419 84
-0.060538758 -0.06681288 0.22924025 0.001810352 495 99
-0.059336904 -0.066693015 0.22914113 0.0017227808 557 112
-0.058174826 -0.066614181 0.22917211 0.0014694545 716 143
-0.056968894 -0.066481166 0.22900578 0.00097934669 1328 255
-0.055175014 -0.065643452 0.22639814 0.0010970975 1084 217
-0.054547656 -0.066187866 0.22854649 0.0014664488 685 137
-0.053646676 -0.066415645 0.22959511 0.0016540136 605 121
-0.052576594 -0.066439159 0.22992928 0.0016716199 545 109
-0.05144294 -0.066381633 0.22997373 0.0016621017 608 122
-0.050430797 -0.066481806 0.23055571 0.0016458866 555 111
-0.049442191 -0.066618115 0.23125504 0.0016439011 577 116
-0.048426315 -0.066723011 0.23183748 0.0017075681 533 107
-0.047382824 -0.066793829 0.23229367 0.0017759177 537 107
-0.046551641 -0.067174368 0.23382004 0.002028126 411 82
-0.046318997 -0.068457954 0.23848659 0.0022289744 352 70
-0.045738544 -0.069278471 0.24153788 0.0029244679 277 55
-0.046561178 -0.072320074 0.25233546 0.0032762459 211 42
-0.045148823 -0.071958475 0.25125793 0.0024989962 304 61
-0.043637034 -0.071414739 0.24953434 0.0018912627 451 90
-0.042339809 -0.071201853 0.24895748 0.0020393829 449 90
-0.041254167 -0.071342804 0.24961032 0.0020858967 425 85
-0.0400839 -0.071341366 0.24975827 0.002066486 424 85
-0.038822655 -0.071173042 0.24931467 0.0019429509 469 94
-0.037531093 -0.070937 0.24862647 0.0019513814 429 86
-0.036193956 -0.070596956 0.24756619 0.0018071792 483 97
-0.035157423 -0.07084015 0.24854474 0.0019164837 460 92
-0.034157716 -0.071176708 0.24984585 0.0020872559 415 83
-0.033239819 -0.071713559 0.25184563 0.0020235772 410 82
-0.032095626 -0.071783662 0.25220144 0.0020968455 390 78
-0.030999115 -0.071969792 0.2529597 0.0020934693 392 78
-0.029825989 -0.071985736 0.25311473 0.0020335042 421 84
-0.028631713 -0.071949847 0.25308222 0.002079413 396 79
-0.027482901 -0.07203003 0.25345296 0.0021135788 404 81
-0.026412413 -0.072331905 0.2545993 0.0020332909 411 82
-0.025125375 -0.072041258 0.25365523 0.0020323831 408 82
-0.02392873 -0.071993902 0.25356281 0.0021038279 384 77
-0.022813775 -0.072200164 0.25435928 0.0021082826 388 78
-0.021700764 -0.072435483 0.25525418 0.0020796701 395 79
-0.020483391 -0.072329529 0.25494236 0.0023999917 373 75
-0.019247821 -0.072142363 0.25433978 0.0020886213 393 79
-0.018095518 -0.072263189 0.25481915 0.0023414316 367 73
-0.016939964 -0.072387077 0.2553055 0.00216882 392 78
-0.015719827 -0.072232842 0.25480717 0.0020104472 412 82
-0.014472655 -0.071919158 0.25374231 0.0020200727 413 83
-0.013309296 -0.072003253 0.25407717 0.0021586576 369 74
-0.012182526 -0.072320923 0.25523296 0.0023080579 381 76
-0.011060094 -0.072735615 0.25672799 0.002141221 380 76
-0.0099311192 -0.07320229 0.25840345 0.0021468825 375 75
-0.0086268913 -0.072327904 0.2553415 0.0022276589 410 82
-0.0074403603 -0.072318912 0.25533107 0.002359607 387 77
-0.006253757 -0.07230565 0.25530234 0.0022637725 392 78
-0.0050219288 -0.07164102 0.25297037 0.002210917 368 74
-0.0038524417 -0.071731478 0.25330141 0.002183266 396 79
-0.0026980629 -0.072306268 0.2553398 0.0021100328 386 77
-0.0015125563 -0.072293982 0.25530189 0.0021437004 408 82
-0.00032919826 -0.072667003 0.2566216 0.0021543002 374 75
0.00085686485 -0.072237097 0.25510272 0.0021569736 370 74
0.0020434512 -0.072324544 0.25540775 0.0024404973 355 71
0.0032354635 -0.072469316 0.2559121 0.0020690227 397 79
0.0044234125 -0.072469763 0.25590363 0.0021224082 389 78
0.0056198216 -0.072579272 0.25627714 0.0021965576 364 73
0.0068346099 -0.072846413 0.25720397 0.0021570397 375 75
0.0080425115 -0.072971605 0.25762632 0.0021769525 370 74
0.009221375 -0.072835028 0.25712112 0.0023090737 386 77
0.010359405 -0.072444208 0.25571534 0.0022504057 390 78
0.011544458 -0.072428778 0.25563139 0.0022352459 357 71
0.012730956 -0.072424456 0.25558323 0.0020895365 389 78
0.013917763 -0.07242249 0.2555398 0.0021008602 391 78
0.015086166 -0.072332591 0.25518265 0.0020996968 388 78
0.016306739 -0.07248769 0.25568613 0.0022468828 380 76
0.017579634 -0.072838515 0.2568759 0.0021024263 397 79
0.018757639 -0.072776556 0.25660589 0.0021168566 387 77
0.019883448 -0.072531611 0.25568691 0.0020846853 408 82
0.02108595 -0.072578281 0.25579199 0.0022540628 366 73
0.022296352 -0.072645709 0.25596595 0.0020882923 388 78
0.023473758 -0.072604224 0.25575182 0.0021521566 396 79
0.02456475 -0.072312392 0.2546517 0.0021469197 406 81
0.025674207 -0.072099254 0.25382468 0.0020359776 412 82
0.027002968 -0.072493643 0.25513151 0.0020068665 413 83
0.028025996 -0.072068594 0.25354961 0.0019309486 446 89
0.029222719 -0.072106525 0.25359201 0.001895469 456 91
0.030527756 -0.072398372 0.25452182 0.0020036262 423 85
0.03154064 -0.072001442 0.25302503 0.0020489204 451 90
0.032683726 -0.071919672 0.25263089 0.0018743239 463 93
0.033882704 -0.071962275 0.25266808 0.0020001607 451 90
0.035154313 -0.072151095 0.25321239 0.0018619085 466 93
0.036386207 -0.072248779 0.25343037 0.0019955733 465 93
0.037436049 -0.071990184 0.25239271 0.001919563 446 89
0.038647007 -0.072047777 0.25245744 0.0021827929 389 78
0.039803971 -0.072004281 0.25216135 0.0020341957 413 83
0.040936947 -0.07192114 0.25171986 0.0021243517 413 83
0.042057909 -0.071822129 0.2512162 0.0019874694 417 83
0.043271974 -0.071883187 0.25126523 0.0017956699 487 97
0.044440977 -0.071868122 0.25104076 0.0021116531 409 82
0.04547248 -0.071637221 0.25005519 0.0020308567 416 83
0.046591531 -0.071552411 0.24957252 0.0020774952 420 84
0.047635615 -0.071359448 0.24870534 0.0018718159 466 93
0.048926156 -0.071536094 0.24911809 0.0019210138 447 89
0.050058752 -0.071478926 0.24870785 0.001910439 459 92
0.051115386 -0.071318395 0.2479298 0.0017833292 502 100
0.052077062 -0.071035527 0.24671903 0.0017921503 510 102
0.053141069 -0.070901558 0.24601765 0.0020112405 467 93
0.054385766 -0.071009241 0.24614559 0.0018399636 471 94
0.055484049 -0.070925258 0.24559958 0.0018296008 477 95
0.056690872 -0.070980608 0.24552646 0.0019056973 468 94
0.057779342 -0.070888534 0.24493371 0.0018839093 455 91
0.058879845 -0.07081455 0.24439411 0.0018961291 489 98
0.060057424 -0.070834354 0.24416818 0.0019038211 487 97
0.061061993 -0.0706532 0.24323992 0.0017666668 501 100
0.061877903 -0.070264578 0.24158944 0.0017635281 535 107
0.062825099 -0.070036508 0.24048328 0.0017964321 493 99
0.064000338 -0.070066288 0.24025285 0.0017473726 511 102
0.064811662 -0.069703624 0.2386678 0.0016635038 547 110
0.066234708 -0.07000003 0.23932913 0.0018482546 527 105
0.067776434 -0.070409633 0.24036327 0.0016361447 576 115
0.068389066 -0.069856472 0.23810096 0.0017401911 569 114
0.069284543 -0.069605708 0.23686324 0.0015809205 616 123
0.070566528 -0.069745071 0.2369435 0.0015695831 617 124
0.071795419 -0.069828354 0.23682183 0.0015893497 593 119
0.073049568 -0.069933198 0.23676254 0.0015234129 625 125
0.074235328 -0.069970347 0.23646379 0.0015925282 603 121
0.07503552 -0.06964846 0.23494454 0.0014839901 661 132
0.075803749 -0.069307014 0.23335506 0.0014323074 701 140
0.076861128 -0.06923613 0.2326715 0.0015406557 634 127
0.078060731 -0.069293536 0.23241228 0.0016647123 593 119
0.07909102 -0.069201164 0.23164488 0.0015644311 606 121
0.080313407 -0.0692771 0.23143598 0.0015571675 608 122
0.081730038 -0.069516137 0.23176605 0.0016548005 599 120
0.082501292 -0.069207229 0.23026709 0.0017221787 578 116
0.083804704 -0.069347039 0.23026122 0.0016676625 543 109
0.085001953 -0.069396436 0.22995432 0.0017589129 518 104
0.086017735 -0.069298327 0.22916122 0.0016541383 547 110
0.087295122 -0.069410793 0.2290685 0.0016312567 563 113
0.088340975 -0.069338642 0.22837242 0.0017339761 536 107
0.089495838 -0.069352791 0.2279693 0.0017558278 502 100
0.091068327 -0.069686159 0.2286239 0.0018765614 503 101
0.092381209 -0.069815069 0.22861782 0.0019548468 484 97
0.093411803 -0.06973011 0.22792655 0.0018475228 463 93
0.094163597 -0.069441594 0.22658996 0.0020568322 427 85
0.095566884 -0.069634683 0.22684568 0.0021633047 406 81
0.096792169 -0.069695041 0.22669029 0.0022358974 399 80
0.097819746 -0.069613293 0.22609776 0.0021413916 387 77
0.098382257 -0.069206282 0.22447796 0.0021172455 398 80
0.098955825 -0.068816245 0.22294533 0.0021861168 364 73
0.10010769 -0.068832628 0.22276145 0.0022975414 386 77
0.10173432 -0.069171444 0.22365203 0.002355132 324 65
0.10275122 -0.069092788 0.22322552 0.0024148354 323 64
0.10290506 -0.068441838 0.2209861 0.0023676225 319 64
0.10386618 -0.06833607 0.2205435 0.0025816883 285 57
0.1047413 -0.068176553 0.21996343 0.0028982183 276 55
0.10537943 -0.067867793 0.21893798 0.0029658349 278 55
0.10575838 -0.067400306 0.21743634 0.0030776972 253 50
0.10722493 -0.067628436 0.21821444 0.0033005923 238 47
0.10813802 -0.06750641 0.21789797 0.003387322 228 45
0.10859716 -0.067106336 0.21671803 0.0031085901 226 45
0.10862015 -0.066447474 0.21473424 0.0032626188 210 42
0.10941926 -0.066271782 0.21434294 0.0035530771 182 36
0.11097003 -0.0665503 0.21545322 0.0036403397 179 35
0.1122629 -0.066670254 0.21608283 0.0037806239 169 33
0.11252566 -0.066182032 0.21477023 0.0042635412 161 32
0.1131134 -0.065892443 0.21412821 0.004135211 159 31
-0.11724138 -0.059480026 0.20208274 0.0031234131 217 43
-0.1186948 -0.060730863 0.20579275 0.0035113201 217 43
-0.11967764 -0.061760362 0.20874099 0.0030380576 230 46
-0.1187416 -0.06180888 0.20837741 0.0030602161 225 45
-0.11806907 -0.061996609 0.20849712 0.0032380919 212 42
-0.11756364 -0.062276177 0.20893981 0.0034848789 222 44
-0.11771312 -0.062910736 0.2105857 0.002709141 263 52
-0.11668133 -0.062919714 0.21015325 0.0030509012 262 52
-0.11585647 -0.063041441 0.21011817 0.0028164096 252 50
-0.11573198 -0.063549966 0.21139082 0.0028233263 251 50
-0.11532948 -0.063913845 0.21220045 0.003330322 238 47
-0.11510925 -0.064386442 0.21339107 0.002949795 270 54
-0.11482703 -0.064832926 0.21451615 0.0026716064 274 55
-0.11432565 -0.065162994 0.21527936 0.0027118574 290 58
-0.11317641 -0.06512659 0.21485899 0.0027116151 264 53
-0.11340103 -0.06588769 0.21709631 0.0026751854 273 54
-0.11104278 -0.065148324 0.21442024 0.0024411059 310 62
-0.11072528 -0.065603495 0.21570858 0.0024020134 315 63
-0.11011267 -0.065891124 0.21647649 0.0023404474 324 65
-0.10974567 -0.066333026 0.21778315 0.0023261996 340 68
-0.1089206 -0.066504218 0.2182344 0.0022747854 342 68
-0.10854056 -0.06695345 0.21963258 0.0024282611 350 70
-0.10754286 -0.067027055 0.21983401 0.0021793318 370 74
-0.10634664 -0.066977181 0.21966676 0.0020288078 409 82
-0.10559069 -0.067206472 0.22045162 0.0023023591 368 74
-0.10504424 -0.06757544 0.22173162 0.0022587499 366 73
-0.10442539 -0.067905337 0.22292055 0.002161203 422 84
-0.10359095 -0.068100721 0.22370476 0.0019964511 415 83
-0.10259126 -0.068190604 0.22417803 0.0021507028 416 83
-0.10135953 -0.068126537 0.2241793 0.0018530833 463 93
-0.10046759 -0.068291992 0.22496879 0.0019466103 429 86
-0.099483609 -0.068397962 0.22559452 0.0019711435 477 95
-0.098548822 -0.068540588 0.22637142 0.0017777873 501 100
-0.097414047 -0.068545841 0.22672255 0.0018960775 496 99
-0.096299127 -0.068565369 0.22714613 0.001801662 483 97
-0.095202714 -0.068598688 0.22763842 0.0018446934 502 100
-0.094006687 -0.068560176 0.2279126 0.0017761871 487 97
-0.09263134 -0.068388321 0.22776011 0.0016564466 550 110
-0.091637164 -0.068497099 0.22855714 0.0017697944 496 99
-0.090920612 -0.068818763 0.23008019 0.0016561578 550 110
-0.089733198 -0.068787701 0.23043628 0.0016531427 549 110
-0.088099964 -0.068409637 0.22963549 0.0017014532 540 108
-0.086766124 -0.068257198 0.22959432 0.0016591394 577 116
-0.085645989 -0.068271056 0.23011546 0.0017398923 578 116
-0.084662907 -0.068396002 0.23101395 0.0016198475 610 122
-0.083905019 -0.068708792 0.23255013 0.0015954026 601 120
-0.082746796 -0.068697847 0.23299131 0.0014726465 662 133
-0.081752442 -0.068824552 0.23389728 0.0015426258 616 123
-0.081038825 -0.069194578 0.23562934 0.0015793453 597 120
-0.079618096 -0.068962805 0.23530766 0.0015855704 609 122
-0.078005537 -0.068555661 0.23437692 0.0015502478 615 123
-0.076531418 -0.068259872 0.23381498 0.0015101417 647 130
-0.0755959 -0.068442807 0.23488417 0.0014879755 649 130
-0.074786447 -0.068747237 0.23636472 0.0016649587 602 121
-0.07336235 -0.068487324 0.23589617 0.0015777267 602 121
-0.072291486 -0.068554163 0.23654222 0.0014554367 686 137
-0.070828207 -0.068245061 0.23587975 0.0012797109 868 174
-0.070342675 -0.06888333 0.23848332 0.0018877254 461 92
-0.069209538 -0.068898082 0.23892154 0.0024151478 336 67
-0.067932703 -0.068767875 0.23884575 0.0026131142 290 58
-0.065788776 -0.067740366 0.23563659 0.0027509353 302 60
-0.063979924 -0.067028053 0.23350407 0.0023511865 353 70
-0.062275682 -0.066401929 0.23165454 0.0019718467 416 83
-0.060673464 -0.065863915 0.23009631 0.001813187 486 97
-0.059399858 -0.06566938 0.22972427 0.0018862125 503 101
-0.058120899 -0.065461509 0.22929363 0.0015793721 595 119
-0.056813881 -0.065213479 0.22871037 0.0013392107 816 164
-0.05522351 -0.064624175 0.2269168 0.001404739 737 148
-0.054098874 -0.064567298 0.22698054 0.0016381083 619 124
-0.053087328 -0.064645819 0.22751097 0.0016106267 577 116
-0.052638542 -0.065427072 0.2305086 0.0016677891 550 110
-0.051649898 -0.065556183 0.23120287 0.001699365 594 119
-0.050545983 -0.065541387 0.23138107 0.0016442752 569 114
-0.049426831 -0.065505758 0.23147675 0.0015869781 607 122
-0.048356071 -0.065534085 0.23178989 0.001724186 519 104
-0.047476415 -0.065828718 0.23303753 0.001821434 486 97
-0.046615172 -0.066163413 0.23442076 0.002116017 426 85
-0.045684848 -0.066413894 0.23549925 0.0021858474 366 73
-0.044920094 -0.066923492 0.23749086 0.0025026968 303 60
-0.045972209 -0.070234805 0.24942738 0.003632138 216 43
-0.045196269 -0.070853308 0.25180322 0.0031523537 240 48
-0.043756049 -0.070435688 0.25048971 0.0020219109 415 83
-0.042485729 -0.070276082 0.25008494 0.0019929337 422 84
-0.041306023 -0.070261568 0.25018889 0.0020445022 404 81
-0.04014967 -0.070287071 0.25042841 0.002057241 408 82
-0.038977869 -0.070286259 0.25056741 0.0021175982 422 84
-0.037756994 -0.07019417 0.25037426 0.0021244036 384 77
-0.036537863 -0.070099533 0.25016528 0.0020225146 413 83
-0.035364345 -0.070089042 0.25025031 0.0019115242 445 89
-0.034375113 -0.070455544 0.25167596 0.0020841656 399 80
-0.033284005 -0.070631795 0.25241715 0.0020258771 447 89
-0.032171406 -0.070773683 0.25303033 0.0021111274 405 81
-0.0309895 -0.070768103 0.25311103 0.0021067117 387 77
-0.029927177 -0.071045958 0.25420064 0.0020946141 387 77
-0.02885488 -0.071322046 0.25527951 0.0021345017 385 77
-0.027757959 -0.071558401 0.25621173 0.0021215936 381 76
-0.02639945 -0.071111329 0.25469193 0.0021733879 372 74
-0.025219532 -0.07112591 0.25482041 0.0021201179 382 76
-0.024077145 -0.071252994 0.25534764 0.0021141013 380 76
-0.022949824 -0.071440168 0.25608605 0.0020866648 392 78
-0.021781599 -0.071513519 0.25641248 0.0021004451 391 78
-0.020530175 -0.0713064 0.25572899 0.0021162552 388 78
-0.019298887 -0.071148053 0.25521621 0.0020264387 422 84
-0.018168196 -0.071364135 0.25604263 0.0021258544 383 77
-0.017033769 -0.071594782 0.25691783 0.0019991824 412 82
-0.015830467 -0.071548857 0.25679708 0.0020543523 401 80
-0.014550108 -0.071118832 0.25529379 0.0021236073 382 76
-0.013407629 -0.071346231 0.25614682 0.0023311528 363 73
-0.012261799 -0.071598314 0.25708532 0.0022372608 353 70
-0.011119665 -0.071928665 0.25830185 0.0021084335 397 79
-0.0099534066 -0.072163939 0.25917381 0.0024072898 357 71
-0.0086874301 -0.071641549 0.25732136 0.0022081581 364 73
-0.0074737598 -0.071452767 0.25666371 0.0024392772 360 72
-0.0062863994 -0.071491644 0.25682065 0.0024839903 346 69
-0.0050708121 -0.071152605 0.25561699 0.0023488733 359 72
-0.0038608634 -0.070709892 0.25403768 0.0021055543 389 78
-0.0026760073 -0.070539638 0.25343418 0.0021098412 384 77
-0.0015259677 -0.071739435 0.25775009 0.0022676147 384 77
-0.00033056078 -0.071771674 0.25786823 0.0021538027 376 75
0.00086069427 -0.071370535 0.2564263 0.002263288 375 75
0.0020539251 -0.071503639 0.25690091 0.0023031381 363 73
0.0032517307 -0.071639784 0.25738344 0.0021907224 374 75
0.0044362685 -0.071489006 0.25683212 0.002235197 365 73
0.0056142863 -0.071319237 0.25620964 0.0022779685 385 77
0.0068265498 -0.071567811 0.25708693 0.0021697094 396 79
0.0080751954 -0.072067149 0.25886175 0.0020744957 389 78
0.0092708189 -0.072025247 0.25868922 0.002111899 384 77
0.010430953 -0.071748838 0.25767133 0.0022268135 366 73
0.011611003 -0.071652189 0.25729585 0.0022574144 349 70
0.012854884 -0.071930736 0.25826427 0.0023528982 373 75
0.013987098 -0.071590215 0.25700665 0.0022849611 397 79
0.015208639 -0.071724497 0.25745022 0.0023469958 349 70
0.016320178 -0.071358234 0.25609371 0.0022066953 357 71
0.017524708 -0.071420699 0.25627232 0.0021563349 372 74
0.018794861 -0.071725644 0.25731704 0.0021108175 378 76
0.020052569 -0.071949475 0.25806659 0.0021177221 389 78
0.021248167 -0.07193777 0.25796714 0.0020992863 392 78
0.022467706 -0.072004035 0.25814322 0.0021466105 384 77
0.023607371 -0.071820587 0.25741982 0.0023306475 378 76
0.024704769 -0.071532451 0.25631741 0.0021573601 371 74
0.025872702 -0.071465693 0.25600407 0.002038721 412 82
0.027065616 -0.071470767 0.25594351 0.0019977971 411 82
0.028279675 -0.071528882 0.25606808 0.0022006738 407 81
0.029501196 -0.071600422 0.25623566 0.0020171346 416 83
0.030561741 -0.071290895 0.25503469 0.0019928769 433 87
0.031658933 -0.071086809 0.25420642 0.002035151 404 81
0.032824911 -0.071046337 0.2539582 0.0021819635 418 84
0.034113716 -0.071265258 0.25463131 0.0019461786 432 86
0.035346717 -0.071356811 0.25484315 0.0021154184 398 80
0.036483128 -0.071253754 0.25435397 0.0019812868 425 85
0.037549239 -0.071024224 0.25340775 0.001957624 429 86
0.038663361 -0.070896752 0.25282004 0.0021560928 406 81
0.039917666 -0.071026281 0.25314218 0.0022637555 396 79
