# .PCD v0.7 - Point Cloud Data file format
VERSION 0.7
FIELDS x y z noise intensity gray
SIZE 4 4 4 4 2 1
TYPE F F F F U U
COUNT 1 1 1 1 1 1
WIDTH 911
HEIGHT 1
VIEWPOINT 0 0 0 1 0 0 0
POINTS 911
DATA ascii
nan nan nan 0 63 13
nan nan nan 0 68 14
nan nan nan 0 63 13
nan nan nan 0 62 13
nan nan nan 0 60 13
nan nan nan 0 60 13
nan nan nan 0 62 13
nan nan nan 0 65 14
nan nan nan 0 85 18
nan nan nan 0 80 17
nan nan nan 0 82 17
nan nan nan 0 80 17
nan nan nan 0 90 19
nan nan nan 0 91 19
nan nan nan 0 94 20
nan nan nan 0 83 18
nan nan nan 0 92 20
-0.10325137 -0.084350795 0.20177427 0.0058199083 102 22
-0.10286207 -0.084838636 0.20255767 0.0058113672 106 23
-0.10506411 -0.087493874 0.20846243 0.0064193918 105 23
nan nan nan 0 107 23
nan nan nan 0 101 22
nan nan nan 0 109 23
nan nan nan 0 117 25
nan nan nan 0 113 24
-0.099969171 -0.088385902 0.20782958 0.0055789887 121 26
-0.098810464 -0.088268861 0.20712507 0.0056678201 123 26
-0.098532647 -0.088944525 0.20829192 0.005438244 112 24
-0.098914936 -0.090236723 0.21090823 0.0050023715 121 26
-0.097309694 -0.089724027 0.20931783 0.0051218621 119 26
-0.095830388 -0.089317597 0.20799522 0.0057410849 120 26
-0.095490374 -0.089975759 0.20916709 0.0047413777 132 28
-0.09431991 -0.089857347 0.20854834 0.0048994943 127 27
-0.095385708 -0.091890588 0.21293359 0.0048332005 128 28
-0.094301596 -0.091875322 0.21258263 0.005057957 126 27
-0.0923521 -0.091006912 0.210279 0.0051284749 134 29
-0.091721945 -0.09143357 0.2109879 0.0044444147 141 30
-0.090756282 -0.09153185 0.21095662 0.0043283715 148 32
-0.090655215 -0.092514798 0.21298087 0.0045463485 137 30
-0.090026565 -0.092976496 0.21382143 0.0044121528 144 31
-0.088841103 -0.09286736 0.21336888 0.0046639275 149 32
-0.087536104 -0.092629038 0.21264076 0.0049369996 148 32
-0.087183721 -0.093405396 0.21426198 0.0037177205 173 37
-0.08716353 -0.094561711 0.2167729 0.0035751434 187 41
-0.086767405 -0.095334537 0.21842355 0.0034527667 190 41
-0.086265609 -0.096009739 0.21987069 0.0039679091 193 42
-0.084700331 -0.095503524 0.21863401 0.0036155598 207 45
-0.084401764 -0.096431114 0.22070137 0.0038208338 186 40
-0.082933746 -0.09602955 0.21974824 0.0037656615 187 41
-0.083150856 -0.09759488 0.22331761 0.00399325 163 35
-0.082566969 -0.098250389 0.2248266 0.0037076029 176 38
-0.081829593 -0.098739088 0.22597565 0.0037758118 178 39
-0.080982827 -0.099107817 0.22687152 0.0038564939 168 36
-0.079865873 -0.09915176 0.22704482 0.0038940662 188 41
-0.07879217 -0.099251464 0.227366 0.0034299016 198 43
-0.077446833 -0.099006884 0.22691762 0.003155499 221 48
-0.076200947 -0.098883979 0.22676617 0.003229429 231 50
-0.075228482 -0.099117555 0.22745012 0.0031008765 224 49
-0.074558206 -0.099762753 0.22909676 0.0031181828 219 48
-0.073392279 -0.099754632 0.22926009 0.0035561442 218 47
-0.071797423 -0.099153906 0.22807507 0.0030077249 234 51
-0.070342578 -0.098730095 0.2273086 0.0032888369 235 51
-0.069899186 -0.099735387 0.22984628 0.0032331005 230 50
-0.069303863 -0.10055418 0.23196988 0.0031964933 227 49
-0.06814725 -0.1005727 0.23225972 0.00318222 240 52
-0.066894613 -0.10044768 0.23222713 0.0029126639 249 54
-0.066118143 -0.10104594 0.23387611 0.0030353309 238 52
-0.064846441 -0.1008953 0.23380001 0.0030761764 226 49
-0.063288271 -0.10028519 0.23266302 0.0030376781 232 50
-0.062094271 -0.10024003 0.23283987 0.0028861263 251 55
-0.061091457 -0.1005077 0.2337478 0.0029112177 237 51
-0.059973534 -0.10059275 0.23423487 0.0028324975 271 59
-0.059176642 -0.10123034 0.23601259 0.0026390492 283 62
-0.057533797 -0.10041732 0.23440881 0.0026153182 309 67
-0.056487311 -0.10063305 0.23520502 0.0026049567 296 64
-0.055478416 -0.10092627 0.2361832 0.002659871 278 60
-0.054489121 -0.1012686 0.23727685 0.0029091337 287 62
-0.053129945 -0.10092345 0.23675771 0.0029163463 281 61
-0.051666014 -0.10035921 0.23571943 0.002681978 288 63
-0.050518025 -0.10039679 0.23609003 0.0026892254 295 64
-0.049552865 -0.10080808 0.23733699 0.0025841673 289 63
-0.048266836 -0.10057073 0.23705317 0.002499368 303 66
-0.047085468 -0.10054509 0.2372631 0.0024364821 326 71
-0.045952365 -0.10062382 0.23771448 0.0025119183 294 64
-0.044890713 -0.10086723 0.23855051 0.0026910508 315 69
-0.043620192 -0.10064176 0.2382721 0.0025403567 302 66
-0.042247668 -0.10016206 0.23738421 0.0024757101 313 68
-0.04116058 -0.10035104 0.2380743 0.0024436677 311 68
-0.040540792 -0.1017236 0.24156985 0.0025560199 294 64
-0.039388157 -0.10180148 0.24198763 0.0026821739 286 62
-0.037948746 -0.10112 0.24059244 0.0025675432 292 64
-0.03660769 -0.10066541 0.23972787 0.0025819661 289 63
-0.035327997 -0.10035511 0.23919846 0.0025565191 290 63
-0.034128103 -0.10025806 0.23916961 0.0027657859 311 68
-0.032887701 -0.1000309 0.23882285 0.002694018 294 64
-0.031794228 -0.10025039 0.2395355 0.0025619706 322 70
-0.030705024 -0.10050053 0.24031524 0.0025164722 294 64
-0.029504843 -0.10039288 0.24023265 0.0024052933 316 69
-0.028260645 -0.10012041 0.23974799 0.0024794117 308 67
-0.027129592 -0.1002426 0.24020112 0.002636791 284 62
-0.026086697 -0.10071611 0.24148993 0.0026661765 285 62
-0.024976932 -0.10096384 0.24223141 0.0024838026 302 66
-0.023777632 -0.10085624 0.24211353 0.0025588938 300 65
-0.022473555 -0.10026997 0.24083865 0.0027926154 290 63
-0.021334454 -0.10039589 0.24126677 0.0028541386 278 60
-0.020195788 -0.10053855 0.24172857 0.0026591434 300 65
-0.018939551 -0.1000775 0.24073154 0.0025030391 298 65
-0.017685847 -0.099570341 0.23961571 0.0024491001 309 67
-0.016624758 -0.10015252 0.24111462 0.0025828483 308 67
-0.015535013 -0.10063675 0.24237186 0.0024354071 312 68
-0.014401905 -0.10089609 0.24308144 0.0029018472 289 63
-0.013261423 -0.10114517 0.24375986 0.0029638009 267 58
-0.012069805 -0.10101476 0.24351706 0.0024388384 308 67
-0.010873413 -0.100812 0.24309285 0.0025922006 286 62
-0.0096943043 -0.10073981 0.2429767 0.0027016143 276 60
-0.0085171694 -0.10067113 0.24286219 0.0028252017 249 54
-0.0072627682 -0.099521779 0.24013349 0.0026075589 283 62
-0.0061170906 -0.099708945 0.2406227 0.0027502899 264 57
-0.0049732914 -0.10002146 0.24140804 0.0027396323 280 61
-0.0038032839 -0.099836752 0.24098678 0.0026317884 285 62
-0.0026589597 -0.10046013 0.24250963 0.0026727184 273 59
-0.0014949072 -0.10073093 0.24317503 0.0027105378 273 59
-0.00032559177 -0.10132374 0.24461126 0.0027135033 286 62
0.00084780745 -0.1007635 0.2432573 0.0025316076 298 65
0.0020111492 -0.10035148 0.24225463 0.0025596127 294 64
0.0031829532 -0.10050923 0.24262087 0.0028324404 277 60
0.0043502226 -0.10047751 0.24252324 0.0026474653 281 61
0.0055082599 -0.10029113 0.24204572 0.00263103 282 61
0.0066538942 -0.099983513 0.24126926 0.00254062 300 65
0.0078214211 -0.10004743 0.24138288 0.0024720705 309 67
0.0089686411 -0.099868685 0.24090447 0.0023391314 329 72
0.010100598 -0.099580422 0.24015552 0.0026740367 274 60
0.011224681 -0.099281803 0.23937535 0.0024526883 307 67
0.012444111 -0.099803597 0.24056648 0.0024508755 310 67
0.013595326 -0.099735938 0.24032985 0.0024729685 309 67
0.014823438 -0.1001987 0.24136433 0.0027869469 300 65
0.016100101 -0.1008983 0.24296157 0.0025780562 289 63
0.017269377 -0.10087555 0.24281201 0.0025679555 287 62
0.018462183 -0.10098442 0.2429723 0.0024743867 307 67
0.01961354 -0.10086712 0.24258155 0.0027718453 297 65
0.020660378 -0.10025586 0.24099669 0.0023430781 330 72
0.021942396 -0.10079017 0.24215877 0.0024565549 307 67
0.02311068 -0.10077438 0.24199152 0.0026566153 291 63
0.024218075 -0.10050739 0.24121447 0.0024681203 302 66
0.025412232 -0.10060848 0.24131393 0.0025177395 298 65
0.026591331 -0.10064369 0.24124825 0.002522337 309 67
0.027708851 -0.10045268 0.24063344 0.0027400912 288 63
0.028676711 -0.099756524 0.23880292 0.0025570961 289 63
0.029929154 -0.10006597 0.23937328 0.0026110527 300 65
0.030874638 -0.099364363 0.23751883 0.0024454603 308 67
0.032160863 -0.099770419 0.23830557 0.0026195026 310 67
0.033619709 -0.10066507 0.24024998 0.0028719292 290 63
0.034822263 -0.10075796 0.24027197 0.0025187172 301 65
0.035903532 -0.10050528 0.23946337 0.002508064 302 66
0.037159223 -0.10074139 0.23981251 0.0025437279 294 64
0.038107745 -0.10015579 0.23819959 0.0025883089 289 63
0.039143741 -0.099827982 0.23719519 0.0026284074 282 61
0.04035791 -0.099960357 0.23727816 0.002618832 284 62
0.04159623 -0.10014347 0.2374745 0.0029264335 279 61
0.042861927 -0.10038072 0.2377921 0.0028267656 268 58
0.044132989 -0.10061764 0.23810174 0.0026174339 290 63
0.045286279 -0.10058074 0.23775724 0.0028484254 295 64
0.046518162 -0.10071586 0.23781367 0.0024827085 303 66
0.04823862 -0.10187618 0.24028222 0.002532711 295 64
0.048288055 -0.099536389 0.23449394 0.0026545064 277 60
0.049536072 -0.099718936 0.23464942 0.002585134 292 64
0.051036499 -0.10038964 0.23594737 0.0027578373 269 58
0.052514527 -0.10098727 0.23706651 0.0026014072 291 63
0.053730287 -0.10106544 0.23696141 0.0028640325 273 59
0.054959938 -0.10116585 0.23690557 0.0029454324 260 57
0.056017928 -0.10095267 0.23611408 0.0027635819 261 57
0.057177722 -0.10092796 0.23576306 0.0025941799 289 63
0.05803616 -0.10038298 0.23419815 0.0026768739 278 60
0.058952685 -0.09995798 0.23291659 0.0028878832 287 62
0.059975173 -0.099725619 0.23208719 0.0029506343 277 60
0.061252978 -0.099918552 0.23224999 0.0028944197 259 56
0.062283576 -0.099708557 0.23147957 0.0027705203 261 57
0.063839734 -0.10033222 0.23264763 0.0029433698 278 60
0.064960957 -0.1002622 0.23221108 0.0027364092 268 58
0.065766506 -0.099716045 0.23067974 0.0026479976 283 62
0.067195669 -0.10011794 0.23134948 0.0026977528 272 59
0.068112165 -0.099755317 0.23026121 0.0026774881 275 60
0.06951838 -0.10011006 0.23083857 0.0028938246 242 53
0.070103437 -0.099290073 0.22871919 0.002859049 260 57
0.071137838 -0.099122778 0.2281175 0.0028833419 254 55
0.072388493 -0.09925732 0.22822361 0.0028603144 250 54
0.073645897 -0.099396773 0.22835468 0.0031385357 257 56
0.074586272 -0.099110648 0.22752345 0.0028604751 247 54
0.075136602 -0.098322801 0.22555846 0.0030983875 246 53
0.077333234 -0.099680632 0.22853214 0.0030710117 238 52
0.078801334 -0.10007314 0.22930847 0.0030662667 228 49
0.079687916 -0.099726506 0.22841005 0.0033324691 223 48
0.080619641 -0.099445499 0.22768234 0.0032800974 210 46
0.081303649 -0.098871186 0.22630404 0.0032045261 213 46
0.082602203 -0.099049799 0.2266703 0.0032889231 205 44
0.08350791 -0.098758921 0.22598353 0.0034027954 207 45
0.083335765 -0.097218506 0.2224593 0.003041412 228 49
0.084770277 -0.097568557 0.22328278 0.0031927051 216 47
0.085956208 -0.097627036 0.22346114 0.0038666648 198 43
0.087059267 -0.09759108 0.22344561 0.0034888042 195 42
0.08783713 -0.097196206 0.22263026 0.0036598006 181 39
0.088688351 -0.0968915 0.22204302 0.0037921821 191 41
0.089825451 -0.096902855 0.22220187 0.0036021848 190 41
0.090577662 -0.096503854 0.22144122 0.0037939241 179 39
0.090594031 -0.09534023 0.21894512 0.004384839 143 31
0.090812534 -0.094414882 0.21701348 0.0044937399 137 30
0.092007928 -0.09451516 0.21745847 0.0045495648 141 30
0.093810506 -0.095229432 0.21933877 0.0048195375 130 28
0.0941763 -0.094485529 0.21788073 0.0045894445 134 29
0.094272904 -0.093491837 0.21586175 0.0046161958 140 30
0.095497802 -0.093626991 0.21646599 0.0046416409 135 29
0.094917923 -0.092009619 0.21303244 0.0052872431 131 28
0.095165551 -0.091221496 0.21152908 0.0045951996 133 29
0.095308714 -0.090351731 0.20984805 0.005056235 136 29
0.096348353 -0.090341493 0.21017727 0.0054744803 130 28
0.097013019 -0.089983702 0.20971312 0.0056209038 120 26
0.097688556 -0.089643508 0.20930327 0.0057372865 102 22
nan nan nan 0 104 22
nan nan nan 0 92 20
nan nan nan 0 93 20
nan nan nan 0 96 21
nan nan nan 0 82 17
nan nan nan 0 87 19
nan nan nan 0 78 17
nan nan nan 0 68 14
nan nan nan 0 73 16
nan nan nan 0 62 13
nan nan nan 0 78 17
nan nan nan 0 59 12
nan nan nan 0 66 14
nan nan nan 0 73 16
nan nan nan 0 80 17
nan nan nan 0 82 17
nan nan nan 0 81 17
nan nan nan 0 88 19
nan nan nan 0 98 21
nan nan nan 0 100 21
nan nan nan 0 92 20
nan nan nan 0 96 21
nan nan nan 0 97 21
nan nan nan 0 118 25
-0.10435492 -0.084261082 0.20362009 0.0059473114 107 23
-0.10483591 -0.085461244 0.20609272 0.0057459967 109 23
-0.10532337 -0.086689956 0.2085979 0.0052291225 116 25
-0.1051007 -0.087352499 0.20972018 0.0057764919 101 22
-0.10402128 -0.087309018 0.20914292 0.005842512 112 24
-0.10355271 -0.087782502 0.20980656 0.0050480184 122 26
-0.10289894 -0.088106923 0.2101185 0.0052996245 117 25
nan nan nan 0 124 27
-0.1008491 -0.088127151 0.20927531 0.0048811687 122 26
-0.098781109 -0.087216616 0.20669228 0.0055063516 126 27
-0.097864464 -0.087314196 0.20651701 0.0048267329 127 27
-0.098710246 -0.089002967 0.21011253 0.0046645873 135 29
-0.098312423 -0.089594595 0.21112405 0.0053521493 127 27
-0.096207142 -0.088626139 0.20847753 0.004743082 131 28
-0.094699778 -0.088193312 0.20711365 0.0047392561 131 28
-0.093704201 -0.0882328 0.2068779 0.0047517656 138 30
-0.092825301 -0.088384256 0.20692183 0.0045058085 142 31
-0.093981951 -0.090499267 0.21157345 0.0044781393 141 30
-0.092136785 -0.089739047 0.20951769 0.0044853194 140 30
-0.091387279 -0.090040721 0.209962 0.0047187884 151 33
-0.091515236 -0.091224141 0.21247813 0.0040938165 155 33
-0.091148816 -0.091936998 0.21391375 0.0039802804 168 36
-0.090495221 -0.092373833 0.21472527 0.0036532923 181 39
-0.089611322 -0.092583336 0.21502826 0.0036348624 184 40
-0.08858496 -0.092649005 0.2150182 0.0039882227 193 42
-0.087930933 -0.093110576 0.21594794 0.0033850586 200 43
-0.087472245 -0.093793258 0.21741091 0.0038161392 169 37
-0.0872325 -0.09473113 0.21948592 0.0039257435 180 39
-0.086370617 -0.095008925 0.22005288 0.0039502578 161 35
-0.086539783 -0.096443027 0.22331956 0.0038945121 168 36
-0.085208252 -0.096220605 0.22277248 0.0039415173 165 36
-0.084577531 -0.096794218 0.22409105 0.004074838 177 38
-0.083636619 -0.097023644 0.22463514 0.0040293252 183 40
-0.08293011 -0.097535118 0.22585453 0.0038093666 193 42
-0.081994861 -0.097788118 0.22649747 0.0038358229 191 41
-0.081184201 -0.098199047 0.22752793 0.0032718843 232 50
-0.080101676 -0.098288245 0.22783403 0.0034786179 221 48
-0.079262294 -0.098682754 0.22886841 0.0037663451 200 43
-0.078085959 -0.09866327 0.22896226 0.0029415782 241 52
-0.076576628 -0.098216079 0.22808123 0.003301447 244 53
-0.0752213 -0.097955748 0.22765018 0.0029940021 237 51
-0.074364319 -0.098346375 0.22874846 0.0029767782 241 52
-0.073598996 -0.098872475 0.23017889 0.0030164951 234 51
-0.072568804 -0.099053942 0.23082273 0.0031966001 237 51
-0.071054682 -0.098569997 0.22992815 0.0029117116 242 53
-0.069912761 -0.098594896 0.23023123 0.0029217254 248 54
-0.069161594 -0.099181004 0.23185697 0.0030530612 242 53
-0.068102039 -0.099337377 0.23248953 0.0029591129 259 56
-0.066808611 -0.099152118 0.23233068 0.0029725933 232 50
-0.06581822 -0.099418022 0.23323631 0.0033346089 224 49
-0.064395972 -0.099029437 0.2326121 0.0033083742 224 49
-0.0631442 -0.098893501 0.23258467 0.0029786674 236 51
-0.061669573 -0.098396905 0.23171088 0.0029863748 242 53
-0.061080575 -0.099321403 0.23418762 0.0030362343 234 51
-0.060365442 -0.10007283 0.2362632 0.0030330312 247 54
-0.058624174 -0.099119231 0.23431364 0.0027371233 270 59
-0.057286426 -0.098823011 0.23391427 0.0024217772 317 69
-0.056147147 -0.098863997 0.23431155 0.0026953388 307 67
-0.055415917 -0.099640392 0.2364528 0.0026115589 283 62
-0.054311141 -0.099764198 0.23704591 0.0025417479 296 64
-0.053037066 -0.099575609 0.23689377 0.0028210478 286 62
-0.05171698 -0.099290155 0.2365064 0.0024517823 313 68
-0.050549738 -0.099291742 0.23679797 0.0024657813 311 68
-0.049335539 -0.09919899 0.23686004 0.0024200585 316 69
-0.048225857 -0.099316992 0.2374205 0.0024191472 326 71
-0.046898033 -0.098980434 0.23688866 0.0022898293 360 78
-0.045781001 -0.099082977 0.23740159 0.0023432134 352 77
-0.044688731 -0.099245861 0.23805401 0.0024492247 328 71
-0.043483984 -0.099160969 0.2381063 0.0025770704 318 69
-0.042267982 -0.099045053 0.23807733 0.0022857899 344 75
-0.041435517 -0.099846765 0.24024934 0.0025715674 308 67
-0.040465429 -0.10035395 0.2417092 0.002400191 320 70
-0.039227836 -0.10020825 0.24159062 0.0026766465 280 61
-0.037821084 -0.099608034 0.24036768 0.0025379343 295 64
-0.036490005 -0.09917511 0.23953915 0.0024509064 311 68
-0.035270311 -0.099026293 0.23938859 0.0025606877 291 63
-0.033857543 -0.098306745 0.23784946 0.0025676358 303 66
-0.032645885 -0.098140873 0.23764116 0.0024795018 306 67
-0.031546079 -0.098311402 0.23824038 0.0026064739 306 67
-0.03051847 -0.098728493 0.23943111 0.0023831401 321 70
-0.029446376 -0.099028975 0.24033324 0.0025556046 309 67
-0.028214263 -0.098793887 0.23992857 0.0024527714 306 67
-0.027046772 -0.098774604 0.24004056 0.00254413 291 63
-0.025986357 -0.099162191 0.24113478 0.0025649737 286 62
-0.024914736 -0.099541426 0.24220285 0.0029170972 275 60
-0.023595424 -0.098919667 0.24082789 0.0024094833 320 70
-0.022434738 -0.098932922 0.2409911 0.0026364482 286 62
-0.021353971 -0.099319339 0.24205686 0.0028427432 287 62
-0.020215487 -0.099466503 0.24253321 0.0024264837 315 69
-0.018920312 -0.0988134 0.24105084 0.0024397697 315 69
-0.017666046 -0.098302446 0.2399071 0.0024755523 305 66
-0.016533012 -0.098441742 0.24034321 0.0024289009 322 70
-0.015491235 -0.099186338 0.24225122 0.0022971237 340 74
-0.014376331 -0.099545874 0.24321301 0.0026878996 314 68
-0.013192561 -0.099450044 0.24305576 0.0027586943 285 62
-0.012003716 -0.099293582 0.24274354 0.0025432734 292 64
-0.010791123 -0.09888576 0.24180977 0.0026110199 309 67
-0.0095915459 -0.098513082 0.24095488 0.0024948663 305 66
-0.0084271301 -0.098448724 0.24084742 0.0025882199 289 63
-0.007246302 -0.098141603 0.24013938 0.0024820666 306 67
-0.0061148908 -0.098514177 0.24108805 0.0026827143 270 59
-0.0049632229 -0.098658346 0.24147148 0.0028372025 289 63
-0.0038118002 -0.098896898 0.24207959 0.002814963 286 62
-0.002658346 -0.099269129 0.24300864 0.0025159144 301 65
-0.001498068 -0.099770226 0.24424683 0.0025487735 304 66
-0.00032336271 -0.099460006 0.24349238 0.0025577531 289 63
0.00084666075 -0.099457204 0.24348406 0.0024754228 307 67
0.0020029729 -0.098781444 0.2418219 0.0027433028 296 64
0.0031607999 -0.098649189 0.24148385 0.0025877664 291 63
0.0043405336 -0.099088065 0.2425375 0.002546632 293 64
0.0054749502 -0.098525606 0.24113369 0.0025161996 298 65
0.0066770404 -0.099164732 0.24266426 0.002445329 315 69
0.0078347512 -0.09905269 0.24234995 0.0026527098 294 64
0.008975585 -0.098783895 0.24164578 0.0026189822 324 71
0.010088154 -0.098301336 0.24041261 0.0024704225 309 67
0.011217042 -0.09806066 0.23976488 0.0025384577 311 68
0.012339395 -0.097813077 0.23909405 0.0023079959 335 73
0.013590005 -0.098537698 0.2407928 0.0023681386 324 71
0.014805884 -0.098916396 0.24163872 0.0023228179 329 72
0.015997598 -0.099090204 0.24197701 0.0024744635 326 71
0.017183691 -0.09920796 0.24217139 0.0024670642 323 70
0.018468056 -0.099842019 0.24361861 0.002461114 305 66
0.019528348 -0.099261306 0.24209484 0.0026279057 315 69
0.020623656 -0.098914042 0.24113466 0.0024712419 317 69
0.021801522 -0.098978706 0.24117202 0.0024241123 317 69
0.023023682 -0.099227697 0.24165124 0.0025515752 321 70
0.024253197 -0.099482842 0.24213779 0.0025998701 285 62
0.025377836 -0.09930411 0.24156119 0.0026675644 300 65
0.026510527 -0.099171214 0.24108952 0.0027528696 295 64
0.027681939 -0.099188283 0.24097539 0.0025035117 301 65
0.02891157 -0.099404126 0.24133684 0.002563447 303 66
0.029634016 -0.097927183 0.23758349 0.0024603701 332 72
0.031053718 -0.098778665 0.2394731 0.0024490173 311 68
0.032249857 -0.098883256 0.23954324 0.0024867756 307 67
0.033306729 -0.09856838 0.23859054 0.0024187264 315 69
0.034577839 -0.098887406 0.23916508 0.0023701363 326 71
0.03590041 -0.099328056 0.24002521 0.0024981757 300 65
0.036902867 -0.098883137 0.2387384 0.0024381622 314 68
0.038183369 -0.09918768 0.23925437 0.0024460678 316 69
0.039280459 -0.099011883 0.23860444 0.0026624668 297 65
0.040333353 -0.098737977 0.23771249 0.0024357564 311 68
0.041496661 -0.098742135 0.2374839 0.0027132602 299 65
0.042817798 -0.09911143 0.23812607 0.0024769378 307 67
0.04402357 -0.099201173 0.23808907 0.0026679172 284 62
0.045259349 -0.099352151 0.23819232 0.0025008458 316 69
0.046686836 -0.099905759 0.239253 0.0027582713 285 62
0.048146114 -0.10049855 0.24039878 0.0027228338 299 65
0.049063053 -0.09995798 0.23882796 0.0026290028 283 62
0.049760599 -0.099006213 0.23627385 0.0026397167 295 64
0.051194426 -0.099529415 0.23723626 0.0027983622 286 62
0.052605592 -0.099986166 0.23803332 0.0028153758 283 62
0.05365571 -0.099751689 0.23718044 0.0026101663 285 62
0.054511763 -0.099174187 0.23551123 0.0025320696 298 65
0.055803526 -0.099396981 0.23574099 0.0025002677 303 66
0.057096533 -0.099612795 0.23595108 0.0025427178 293 64
0.057853241 -0.09890309 0.23396918 0.0026943136 281 61
0.05869507 -0.098364025 0.23239434 0.002599777 298 65
0.059951842 -0.098527744 0.23248146 0.002622321 278 60
0.061100844 -0.098511502 0.23214477 0.0027848068 293 64
0.062401786 -0.098736264 0.2323776 0.0025896195 288 63
0.063571505 -0.098748982 0.23211387 0.0024924101 302 66
0.064549223 -0.098468341 0.23116569 0.0026075649 315 69
0.065604642 -0.098314054 0.23052065 0.0026332536 287 62
0.066539735 -0.097987898 0.22948033 0.0028493311 282 61
0.067603387 -0.097858965 0.22891074 0.0025681711 289 63
0.069316201 -0.098658286 0.23051941 0.0030127538 271 59
0.070375443 -0.09851639 0.22993708 0.0028946768 262 57
0.071389325 -0.09831661 0.22923154 0.0026397179 277 60
0.072691843 -0.098514363 0.22946523 0.0027409347 265 58
0.073602974 -0.098183811 0.22848205 0.0029194369 276 60
0.074555904 -0.097918384 0.22766623 0.0026862351 273 59
0.076100364 -0.098426089 0.22866321 0.0030745403 243 53
0.077661484 -0.098939821 0.22968909 0.0027974879 257 56
0.078414813 -0.098424435 0.22834364 0.003004276 230 50
0.07955309 -0.098400198 0.22815721 0.0030741645 224 49
0.080781281 -0.098486282 0.22824603 0.0032844723 204 44
0.08186689 -0.098398566 0.22795238 0.0032198674 210 46
0.082165495 -0.097380556 0.22552538 0.0033019914 205 44
0.083360799 -0.097438678 0.22561273 0.0030442821 225 49
0.083834931 -0.096663684 0.22379321 0.0032583009 210 46
0.084809303 -0.096478499 0.22336155 0.0036583263 209 45
0.085886545 -0.096413694 0.22323112 0.0037798807 198 43
0.086996362 -0.096386656 0.22321075 0.0034931756 190 41
0.088336878 -0.096612647 0.22379933 0.0037829964 190 41
0.089318588 -0.096445464 0.22350013 0.0035983673 190 41
0.090062045 -0.09602841 0.22264427 0.0040073264 190 41
0.091776296 -0.096643999 0.22420575 0.0036202027 192 42
0.092097595 -0.095795631 0.22239326 0.0038451573 170 37
0.092410818 -0.094959475 0.22062862 0.0042053289 161 35
0.093491547 -0.094922528 0.22074127 0.0045216116 163 35
0.094233319 -0.0945464 0.2200859 0.0042138966 154 33
0.094703518 -0.093909718 0.21884286 0.0046549565 143 31
0.095529594 -0.093636572 0.21846545 0.0045791487 136 29
0.096277237 -0.093293644 0.21794382 0.0049934452 122 26
0.097257219 -0.093181051 0.21797879 0.0058782939 116 25
0.097443044 -0.092318572 0.21627572 0.0047916258 128 28
0.096844561 -0.090740219 0.21290588 0.0048288684 128 28
0.09814667 -0.090957679 0.21376278 0.0050623021 125 27
0.099507153 -0.091223955 0.21475406 0.0054223072 122 26
0.099094748 -0.089876592 0.21195933 0.0053184158 130 28
0.099433221 -0.089231513 0.21082889 0.0052105519 114 24
0.10079771 -0.089511022 0.21189745 0.0051131914 118 25
nan nan nan 0 119 26
nan nan nan 0 111 24
nan nan nan 0 108 23
nan nan nan 0 95 20
nan nan nan 0 91 19
nan nan nan 0 79 17
nan nan nan 0 82 17
nan nan nan 0 79 17
nan nan nan 0 79 17
nan nan nan 0 72 15
nan nan nan 0 74 16
nan nan nan 0 77 16
nan nan nan 0 91 19
nan nan nan 0 101 22
nan nan nan 0 95 20
nan nan nan 0 100 21
nan nan nan 0 105 23
nan nan nan 0 110 24
nan nan nan 0 110 24
nan nan nan 0 108 23
nan nan nan 0 106 23
-0.10489212 -0.082910948 0.20282279 0.0058979532 110 24
-0.10521486 -0.083956033 0.20495796 0.0062562414 109 23
-0.10497057 -0.084564358 0.20599087 0.0049978453 124 27
-0.10442566 -0.084939942 0.20643878 0.0055401581 127 27
-0.10395988 -0.085387871 0.20705532 0.0058502946 121 26
-0.10428689 -0.086502232 0.20928332 0.0054873601 123 26
-0.10416336 -0.087261379 0.21065003 0.0054785628 119 26
-0.10341542 -0.087507464 0.21078393 0.0048891692 121 26
-0.10314948 -0.088170581 0.21193068 0.0051755812 126 27
-0.10223134 -0.088284083 0.21176669 0.0050122086 132 28
-0.099944077 -0.087205343 0.20876265 0.005547544 123 26
-0.098552622 -0.086893782 0.20761733 0.0046625156 137 30
-0.098046608 -0.087364584 0.2083569 0.0043738638 142 31
-0.097839512 -0.088114694 0.20977403 0.0050572269 137 30
-0.096962854 -0.088271521 0.20979226 0.0045171529 137 30
-0.095720135 -0.088094875 0.20903581 0.0043693529 144 31
-0.095082588 -0.088477455 0.20962395 0.0046610553 149 32
-0.094400994 -0.088827163 0.21015035 0.0049285549 148 32
-0.094052546 -0.089501813 0.21146148 0.0037415384 173 37
-0.093011111 -0.089524917 0.21125089 0.0037055882 176 38
-0.092249461 -0.089820966 0.21170378 0.0035095846 190 41
-0.092410952 -0.09103334 0.21433325 0.0037482721 188 41
-0.092298485 -0.092001401 0.21640366 0.0035679194 187 41
-0.091866955 -0.092670873 0.21779004 0.0037555539 192 42
-0.091380917 -0.093300961 0.21910369 0.0038758195 169 37
-0.090181567 -0.093209289 0.21874414 0.0039424854 162 35
-0.089084931 -0.093222812 0.2186545 0.0041263481 156 34
-0.088599294 -0.093884155 0.22010654 0.0043633725 167 36
-0.087794773 -0.094220132 0.2208181 0.0043201162 171 37
-0.087119229 -0.094705023 0.22190134 0.0037926931 177 38
-0.086508051 -0.095273525 0.22320336 0.003934735 192 42
-0.085772887 -0.095718764 0.22423962 0.0033793738 212 46
-0.084926672 -0.096050389 0.22503281 0.0033688231 201 44
-0.084114365 -0.096429951 0.22596131 0.0037755999 200 43
-0.083302692 -0.096820742 0.22693887 0.0032031969 224 49
-0.082027182 -0.096675828 0.22668289 0.0030411326 238 52
-0.08119332 -0.097054735 0.2276766 0.0033358429 223 48
-0.080081888 -0.097107977 0.22792742 0.0031417424 219 48
-0.079169281 -0.097407416 0.22877631 0.003534701 216 47
-0.077973805 -0.097362541 0.22883572 0.0029966228 238 52
-0.076336391 -0.09675616 0.22759202 0.002931617 248 54
-0.075024419 -0.096550018 0.22730485 0.0029701525 252 55
-0.07411319 -0.096861206 0.22825135 0.0028497931 250 54
-0.07352826 -0.097615421 0.23025873 0.0027275281 264 57
-0.072466977 -0.097751305 0.23082297 0.0027441455 265 58
-0.071094327 -0.097464763 0.23040131 0.0028913117 250 54
-0.069794409 -0.097270079 0.23020634 0.002941356 239 52
-0.068913661 -0.097662874 0.23141184 0.0029818094 260 57
-0.067899525 -0.097876847 0.23220375 0.0028434021 265 58
-0.066971131 -0.098224066 0.23332049 0.0029077379 246 53
-0.065509714 -0.097787939 0.23258221 0.0032978181 230 50
-0.064322799 -0.097753227 0.23280209 0.0033974594 222 48
-0.063036092 -0.09756279 0.23265409 0.0033853888 201 44
-0.06232531 -0.098273292 0.23465885 0.003939535 183 40
-0.061667107 -0.099095479 0.23693682 0.0035994449 180 39
-0.060383927 -0.098925859 0.23684621 0.0039551388 188 41
-0.059034437 -0.098638676 0.23647259 0.0032257284 210 46
-0.057199322 -0.097511962 0.23408093 0.0028972784 249 54
-0.056203067 -0.097798266 0.23507683 0.002637136 283 62
-0.055307187 -0.098275021 0.23653062 0.0025415958 294 64
-0.054170687 -0.098335609 0.23698133 0.0025490627 295 64
-0.052826665 -0.098013818 0.23650621 0.002622562 300 65
-0.051522896 -0.097753875 0.2361744 0.002520228 319 69
-0.050352618 -0.097741045 0.23643427 0.0026101782 309 67
-0.049240708 -0.09784358 0.23696847 0.0026148192 299 65
-0.047992766 -0.097674243 0.2368387 0.0023433724 331 72
-0.0467012 -0.097405493 0.23646094 0.0023375491 331 72
-0.045536671 -0.097394779 0.23670284 0.0022065325 361 79
-0.044585846 -0.097852528 0.23807831 0.0024596495 333 73
-0.043564741 -0.098176435 0.23912379 0.0025956938 318 69
-0.042424306 -0.098241873 0.23953411 0.0024266264 313 68
-0.041380718 -0.098541655 0.2405099 0.002458866 313 68
-0.040352102 -0.098895632 0.24161269 0.0024790454 313 68
-0.039168209 -0.098878875 0.24180344 0.0024705245 309 67
-0.037653301 -0.09799955 0.23987566 0.0024873032 337 73
-0.036370318 -0.097686946 0.2393253 0.0025928088 328 71
-0.035132118 -0.097477913 0.23902032 0.0023220584 336 73
-0.033841796 -0.097105056 0.23830526 0.0023479739 333 73
-0.032570746 -0.096763097 0.23765746 0.0027009619 306 67
-0.031476419 -0.096940339 0.23827733 0.0024830098 319 69
-0.030487858 -0.097469166 0.23975559 0.0025410522 326 71
-0.029406507 -0.097731486 0.2405725 0.0023970206 320 70
-0.028166547 -0.097466558 0.24008447 0.00256482 322 70
-0.027095199 -0.097787388 0.24103227 0.002532983 302 66
-0.026107207 -0.098451354 0.24282028 0.0025114894 302 66
-0.024794349 -0.097895093 0.24159181 0.0024228848 315 69
-0.023558877 -0.097604573 0.24101093 0.0024628851 308 67
-0.022442495 -0.097802892 0.24163002 0.0025967842 324 71
-0.021396276 -0.098345391 0.24309348 0.0025403951 295 64
-0.020205328 -0.098246984 0.24296635 0.0026216304 299 65
-0.018902119 -0.09755706 0.24136868 0.0023349035 332 72
-0.01757724 -0.096657656 0.23924424 0.002487682 340 74
-0.01646065 -0.096857876 0.23983419 0.0025731567 322 70
-0.015428491 -0.097622491 0.24181589 0.002378009 326 71
-0.014347486 -0.098177433 0.24327281 0.0024936004 307 67
-0.013179169 -0.098180339 0.24335562 0.0024283759 312 68
-0.011911738 -0.097373597 0.24142447 0.0024077939 338 74
-0.01072079 -0.09708555 0.24077217 0.0024811712 322 70
-0.0095970836 -0.097410373 0.24163337 0.002546232 301 65
-0.0084517803 -0.097575173 0.24209142 0.002543922 299 65
-0.0072723422 -0.097335584 0.24153973 0.0024396584 310 67
-0.006115308 -0.0973619 0.24164146 0.0025630496 294 64
-0.0049547614 -0.097331509 0.24159609 0.0025665103 289 63
-0.0038048683 -0.097555734 0.24217646 0.0025961301 285 62
-0.0026523552 -0.097880252 0.24299961 0.0026466118 276 60
-0.0014881942 -0.097946666 0.24317573 0.0027357701 303 66
-0.00032131831 -0.097668529 0.24249005 0.0024452806 317 69
0.00084142649 -0.097679548 0.24251603 0.0026438967 305 66
0.0020023757 -0.09759026 0.24228662 0.0024849686 304 66
0.0031531048 -0.097251318 0.24143119 0.0024651475 305 66
0.0043032249 -0.0970807 0.24098739 0.0026360166 304 66
0.0055177929 -0.09812846 0.24356151 0.002658512 299 65
0.0066610863 -0.097764008 0.24262388 0.0024391285 307 67
0.0078632375 -0.098243341 0.24377382 0.0026205517 282 61
0.0089929523 -0.097810693 0.24265444 0.0027015302 308 67
0.010120071 -0.097452246 0.24171312 0.0024370982 318 69
0.011169881 -0.096499629 0.23929241 0.0024191877 318 69
0.012342456 -0.096686386 0.23969105 0.0026170542 315 69
0.013543475 -0.097045109 0.24050912 0.0027532566 292 64
0.01479995 -0.09771356 0.24208756 0.0027455036 296 64
0.015948841 -0.097626068 0.241786 0.0026881907 299 65
0.017132945 -0.097751342 0.24200478 0.0023538016 329 72
0.018319467 -0.097873628 0.24220912 0.0026794879 306 67
0.019507265 -0.097987682 0.24238615 0.0025675274 294 64
0.020625142 -0.097757451 0.24170493 0.0024491902 306 67
0.021768827 -0.097667627 0.24136434 0.0024619063 333 73
0.023056531 -0.098200291 0.24255459 0.0026328659 311 68
0.024246732 -0.098286308 0.24263392 0.002333794 332 72
0.025322758 -0.097922891 0.2415971 0.0023075317 334 73
0.026382737 -0.097532146 0.24048692 0.0026388217 318 69
0.027595922 -0.097716838 0.24078885 0.0023298205 331 72
0.028818719 -0.097919263 0.24112673 0.0024005063 336 73
0.030054998 -0.098149948 0.24152638 0.0023169552 339 74
0.03106197 -0.097642571 0.24010304 0.0024937524 322 70
0.032150108 -0.097417735 0.23936866 0.0025011182 331 72
0.03328773 -0.097353257 0.23902164 0.0024595086 343 75
0.034544852 -0.097630858 0.23950692 0.0022678517 353 77
0.035844628 -0.098007038 0.24022548 0.0025049576 337 73
0.037167836 -0.098421507 0.24102899 0.0024596008 309 67
0.038305059 -0.098333232 0.24059346 0.0023593146 329 72
0.039159115 -0.097544827 0.23843974 0.0025096436 309 67
0.040121946 -0.097064972 0.23703621 0.0024851831 325 71
0.041383959 -0.097315527 0.23740999 0.0023559683 330 72
0.042720415 -0.097722717 0.23815748 0.0026290196 302 66
0.04387486 -0.09770301 0.23785692 0.0025393323 324 71
0.04512807 -0.09789858 0.23807347 0.0025451768 312 68
0.04662849 -0.098607078 0.2395286 0.0024526268 307 67
0.048005749 -0.099026732 0.24027283 0.0024006185 321 70
0.049010064 -0.098675393 0.2391403 0.0024871703 303 66
0.049774662 -0.097869158 0.23690306 0.0024344476 312 68
0.05106613 -0.098112062 0.23720179 0.0025834651 291 63
0.052455969 -0.098528877 0.23791419 0.0025909168 289 63
0.053370036 -0.098053366 0.23646772 0.0025857892 288 63
0.054313801 -0.097651593 0.23519787 0.0026283942 291 63
0.05560093 -0.09787105 0.23542155 0.0025700133 292 64
0.056688458 -0.097737372 0.23479275 0.0027170447 288 63
0.057516254 -0.097170271 0.2331229 0.0026205373 297 65
0.058430769 -0.096769147 0.23185296 0.0024863826 338 74
0.059731595 -0.097010963 0.23212345 0.0023608007 330 72
0.061138645 -0.097412847 0.23277512 0.0025704077 307 67
0.062317938 -0.097443625 0.23253979 0.002424788 314 68
0.063473016 -0.097436108 0.23221511 0.0025282335 300 65
0.064552315 -0.097314626 0.23162237 0.0024643932 329 72
0.065480731 -0.096973978 0.23051357 0.0025849305 299 65
0.066549987 -0.09685009 0.22992671 0.0027418656 301 65
0.068277702 -0.097672358 0.23159051 0.0027116379 273 59
0.069111928 -0.09721034 0.23021562 0.0026960003 273 59
0.070463054 -0.097478643 0.23057979 0.0030137063 265 58
0.071637794 -0.097498164 0.23036475 0.0025373122 296 64
0.072948419 -0.097699054 0.23058906 0.0027212752 298 65
0.073829077 -0.097326845 0.22947371 0.0027828438 256 56
0.074600376 -0.096824184 0.22806665 0.0029133039 254 55
0.076338634 -0.097572729 0.2296212 0.0028267452 255 55
0.077364162 -0.097401552 0.22902624 0.0028529598 248 54
0.078306116 -0.097131737 0.22821745 0.0030156581 233 51
0.079206556 -0.096819021 0.22732708 0.0031154582 226 49
0.080557927 -0.097058594 0.22775275 0.0030509254 226 49
0.081918769 -0.097302631 0.22820833 0.0030832957 228 49
0.083183497 -0.097427286 0.22840449 0.0031850436 218 47
0.083126955 -0.096022278 0.2250372 0.0030532859 223 48
0.084195316 -0.095937163 0.2247863 0.0033819301 221 48
0.085691802 -0.096335642 0.22569096 0.0030593951 231 50
0.086266339 -0.095700815 0.22419775 0.0036782662 204 44
0.086833537 -0.09507449 0.22274759 0.0034681784 192 42
0.088648342 -0.095812723 0.22451794 0.0037286466 175 38
0.089540787 -0.095547974 0.22396173 0.0036271748 189 41
0.090464748 -0.095323063 0.2235221 0.0034249078 198 43
0.091742866 -0.095472291 0.22398332 0.003618072 180 39
0.093018644 -0.095615439 0.22445424 0.003504554 187 41
0.093206488 -0.094650343 0.22234553 0.0039065629 168 36
0.093855619 -0.094171159 0.22139871 0.0044245664 165 36
0.094329804 -0.093529806 0.22009096 0.004184355 150 32
0.095189176 -0.093280889 0.21972686 0.0047190278 148 32
0.095569134 -0.092573337 0.21830165 0.0042646658 145 31
0.096800491 -0.092697203 0.21885677 0.0044408678 143 31
0.097457886 -0.09227486 0.21814212 0.0042127138 147 32
0.098083377 -0.091832042 0.21739663 0.0043655075 144 31
0.098327741 -0.091046095 0.21585444 0.0047948221 126 27
0.099806152 -0.091407493 0.21705005 0.005246507 121 26
0.1002626 -0.090835214 0.21604648 0.0056903148 102 22
0.10022268 -0.08983025 0.2140256 0.0061657215 109 23
0.10041757 -0.089054748 0.21256137 0.0058617555 109 23
0.10159355 -0.089156434 0.21320485 0.0060192468 111 24
0.10186008 -0.088466153 0.21196795 0.0058988938 111 24
0.10116312 -0.086961761 0.20878547 0.0051273075 124 27
nan nan nan 0 113 24
nan nan nan 0 117 25
nan nan nan 0 107 23
nan nan nan 0 88 19
nan nan nan 0 86 18
nan nan nan 0 86 18
nan nan nan 0 82 17
nan nan nan 0 83 18
nan nan nan 0 88 19
nan nan nan 0 92 20
nan nan nan 0 101 22
nan nan nan 0 114 24
-0.10879631 -0.079722285 0.19739455 0.0052803997 110 24
-0.10895397 -0.080548882 0.19996142 0.005160518 120 26
-0.10806908 -0.080612682 0.20037842 0.0052086264 119 26
-0.10790831 -0.081222661 0.2019303 0.0055619874 118 25
-0.10768492 -0.081796251 0.20321572 0.0055280603 113 24
nan nan nan 0 114 24
nan nan nan 0 107 23
-0.1033488 -0.080718599 0.19951798 0.0054734587 115 25
-0.10407179 -0.082055368 0.20237911 0.0048555648 129 28
-0.10528657 -0.083809242 0.20623657 0.0053932909 113 24
-0.1043783 -0.083890751 0.20596398 0.005300031 119 26
-0.10403824 -0.084435008 0.2068269 0.0055155838 123 26
-0.10493129 -0.086000651 0.21018769 0.005897928 118 25
-0.10417521 -0.086232431 0.21028939 0.0052036769 117 25
-0.1027953 -0.085947298 0.20914367 0.0049059982 125 27
-0.10243191 -0.086514913 0.21008572 0.0047430745 128 28
-0.10167909 -0.086761914 0.2102602 0.0048372019 127 27
-0.10006987 -0.086275689 0.20867476 0.0049014031 131 28
-0.098527417 -0.085837439 0.20722595 0.0046402286 135 29
-0.098219991 -0.086477257 0.20839582 0.0044240719 147 32
-0.097410776 -0.086684257 0.20853652 0.0040060529 162 35
-0.096978612 -0.087234914 0.20951881 0.004002627 168 36
-0.09623941 -0.087518416 0.20987484 0.0041705589 174 38
-0.095798723 -0.088082664 0.21092023 0.0039285272 188 41
-0.095833734 -0.089101851 0.2130693 0.0034146439 199 43
-0.095629923 -0.08991956 0.21475112 0.0040255561 182 39
-0.09431237 -0.089696772 0.21396706 0.0035110849 194 42
-0.093751945 -0.090197243 0.21492897 0.0043544252 167 36
-0.09349519 -0.091005035 0.2166419 0.0037160562 178 39
-0.093407512 -0.091998525 0.21881522 0.0040052393 159 34
-0.093144193 -0.092840791 0.2206483 0.0044442657 164 35
-0.093419433 -0.094246879 0.22384091 0.0041277721 155 33
-0.09368483 -0.09567751 0.22711167 0.0043536634 158 34
-0.091131069 -0.094228789 0.22357182 0.0038273402 174 38
-0.089497022 -0.093706496 0.22225623 0.0035599354 189 41
-0.088410527 -0.093751483 0.22231054 0.0034878741 196 42
-0.087900937 -0.094417311 0.22386077 0.0036173689 209 45
-0.08729849 -0.094999552 0.22523654 0.0034009896 202 44
-0.086178586 -0.095026679 0.22531995 0.0031554964 224 49
-0.084676027 -0.094626896 0.22441448 0.0028910397 246 53
-0.085058823 -0.096351899 0.22857192 0.0031785318 222 48
-0.08402402 -0.096496582 0.22900446 0.0031938122 239 52
-0.082983702 -0.096638918 0.22945383 0.002919686 244 53
-0.081275731 -0.09599673 0.22806102 0.0029596023 240 52
-0.079967566 -0.095815018 0.22778136 0.0029499137 249 54
-0.078916647 -0.095940746 0.22825171 0.0028384221 251 55
-0.077642664 -0.095794991 0.22809444 0.0026793731 273 59
-0.076287851 -0.095543578 0.22770192 0.0026154397 283 62
-0.074999504 -0.095369011 0.22750755 0.0028329634 288 63
-0.074060276 -0.095639847 0.22839063 0.0027041207 271 59
-0.073044024 -0.095818199 0.22906746 0.0027382828 269 58
-0.071990341 -0.095952399 0.22965184 0.0027351868 283 62
-0.070727468 -0.09580759 0.22957936 0.0024982479 303 66
-0.069588676 -0.095828861 0.22991419 0.0028523181 255 55
-0.068647593 -0.096127711 0.23092434 0.003061339 259 56
-0.067726195 -0.096464835 0.23203558 0.0027791581 261 57
-0.066645607 -0.096583053 0.23262766 0.0030410038 229 50
-0.065755256 -0.096986048 0.23391217 0.0037919614 199 43
-0.064378053 -0.09667255 0.2334726 0.00421779 163 35
-0.063262396 -0.096747495 0.23397297 0.004439034 161 35
-0.062027976 -0.096640207 0.23403408 0.0043502757 147 32
-0.061050091 -0.096936144 0.23507293 0.0042678015 144 31
-0.059406377 -0.096165806 0.23352423 0.0043332293 145 31
-0.058611877 -0.096766844 0.23530406 0.0047586416 140 30
-0.057623308 -0.097065374 0.23634928 0.0039910409 165 36
-0.05643408 -0.097031273 0.23658292 0.0035492901 211 46
-0.055333138 -0.097150721 0.23718801 0.0030048792 238 52
-0.054188553 -0.097197063 0.23761131 0.0026517948 276 60
-0.052646358 -0.096516505 0.23625126 0.0024159539 317 69
-0.051476751 -0.096503705 0.23651874 0.0023747406 327 71
-0.050192002 -0.096269481 0.23623766 0.0024513113 337 73
-0.049059987 -0.096324019 0.23665906 0.0024384768 339 74
-0.04811509 -0.096757509 0.23800708 0.0023573346 338 74
-0.04686179 -0.096576937 0.23783918 0.00226554 352 77
-0.045678426 -0.09653496 0.23800556 0.002328475 337 73
-0.044598963 -0.096716121 0.23871586 0.002205573 360 78
-0.043395389 -0.09663064 0.23876148 0.0023173387 339 74
-0.042415731 -0.097052783 0.24005529 0.0023534079 336 73
-0.041227125 -0.09700723 0.24018615 0.0022677158 353 77
-0.040124126 -0.0971663 0.24081677 0.0024545386 327 71
-0.039029349 -0.097355448 0.24151558 0.0023310117 334 73
-0.037765518 -0.097121559 0.24115752 0.002417278 346 75
-0.036478914 -0.096812285 0.24060367 0.002267167 347 76
-0.035215721 -0.096546739 0.24014992 0.0025714021 334 73
-0.033924129 -0.096182555 0.23944223 0.0024419404 341 74
-0.03267847 -0.095927455 0.23899753 0.0022970547 354 77
-0.031612039 -0.096199058 0.23985787 0.0024439096 335 73
-0.030576399 -0.096588597 0.24100627 0.0025204357 333 73
-0.029372055 -0.096454948 0.24084245 0.0025029969 328 71
-0.02820459 -0.096436389 0.24095857 0.0024802769 319 69
-0.027109236 -0.096673369 0.24170643 0.0026983651 291 63
-0.026062278 -0.097111985 0.24295232 0.0025546341 296 64
-0.024819238 -0.096826859 0.24238075 0.0025721404 291 63
-0.023557547 -0.096437231 0.2415397 0.0026036601 299 65
-0.02249231 -0.096853144 0.24270925 0.0025462806 299 65
-0.021374775 -0.097077042 0.24339157 0.0026398308 288 63
-0.020101545 -0.096578822 0.24225624 0.0024224645 318 69
-0.018797234 -0.095860854 0.24056154 0.0023975712 320 70
-0.017563595 -0.095432907 0.23958677 0.0023639528 335 73
-0.016493548 -0.095896162 0.2408428 0.0026115519 318 69
-0.015459009 -0.096651189 0.24282622 0.0023808309 319 69
-0.01435052 -0.097029246 0.24385695 0.0024228774 315 69
-0.013231527 -0.097397007 0.24485591 0.0025414517 296 64
-0.011969213 -0.096678711 0.24311776 0.0026487566 300 65
-0.010775372 -0.096418239 0.24252386 0.0024240962 311 68
-0.0096493568 -0.096775055 0.2434763 0.002479593 305 66
-0.0084880562 -0.09682744 0.24365668 0.0026386231 310 67
-0.007287866 -0.096382208 0.2425784 0.0025015636 303 66
-0.006106711 -0.096067652 0.24182242 0.0028909338 281 61
-0.0049492721 -0.096066326 0.24184853 0.0026225124 287 62
-0.0038006487 -0.096287526 0.24242872 0.0026910354 291 63
-0.0026379735 -0.096190684 0.24220207 0.0025327753 298 65
-0.0014781477 -0.096127361 0.24205358 0.0023514316 333 73
-0.0003200557 -0.096126683 0.24205665 0.0024870504 318 69
0.00083894143 -0.096231729 0.24231976 0.0026798616 302 66
0.001995709 -0.096107513 0.24199949 0.0026638128 315 69
0.0031498934 -0.095995776 0.24170443 0.0026981761 303 66
0.0043031764 -0.095923983 0.2415038 0.0026277953 316 69
0.0054517752 -0.095800243 0.24116632 0.0023799089 322 70
0.006679581 -0.096868433 0.24382281 0.0025394736 308 67
0.0078161806 -0.096492916 0.24283893 0.0023781073 328 71
0.008994 -0.096657619 0.24320842 0.0024958034 298 65
0.010110473 -0.096200861 0.24200802 0.002612178 296 64
0.011226561 -0.095834754 0.24102981 0.0024102663 315 69
0.012319137 -0.09535493 0.2397598 0.0026992369 309 67
0.013557599 -0.095989868 0.24128625 0.0025643327 325 71
0.014784291 -0.09644822 0.24236155 0.0025922996 289 63
0.015898881 -0.096161745 0.2415586 0.002621138 312 68
0.017044071 -0.096086688 0.24128044 0.0024236876 311 68
0.018319827 -0.096710436 0.24274994 0.0023166048 333 73
0.019494658 -0.096758664 0.24276747 0.0026996287 306 67
0.020492585 -0.095972948 0.24068673 0.0023791492 325 71
0.021796538 -0.096627839 0.24221219 0.0024290476 308 67
0.023057986 -0.097037435 0.24311464 0.0025648293 322 70
0.024202537 -0.096939288 0.24273768 0.0025327508 300 65
0.025251484 -0.096484885 0.24146242 0.0025713304 312 68
0.026341144 -0.096219197 0.24065349 0.0025185151 321 70
0.027541844 -0.096364409 0.24086538 0.0023872522 334 73
0.028818285 -0.096752167 0.24167562 0.0025719032 329 72
0.030032013 -0.096907407 0.24189688 0.0025051374 333 73
0.030990429 -0.096258022 0.24010338 0.0024645219 336 73
0.032071687 -0.096023276 0.23933846 0.0023646876 332 72
0.0333171 -0.096279241 0.23978941 0.0024424877 340 74
0.034568418 -0.096534461 0.24023022 0.0023299728 343 75
0.03592068 -0.097045824 0.24129955 0.0026062231 317 69
0.036966667 -0.096723549 0.24028836 0.0024496177 328 71
0.037926871 -0.096203379 0.23878008 0.0024033501 321 70
0.039052486 -0.096121207 0.23835307 0.0023918564 324 71
0.040090974 -0.09583547 0.23741491 0.0025650484 309 67
0.041302819 -0.095968544 0.23750754 0.0025831882 322 70
0.042628821 -0.096352383 0.23821236 0.0025190439 317 69
0.043713357 -0.096184589 0.23754594 0.002456632 343 75
0.044865929 -0.096171282 0.23725462 0.0023357358 333 73
0.046364099 -0.096880794 0.23873796 0.0023493876 330 72
0.047741208 -0.09730871 0.23951764 0.0024178596 312 68
0.048753284 -0.096989922 0.23845269 0.0023411585 339 74
0.049588468 -0.096342377 0.23657624 0.0022739014 345 75
0.050720088 -0.096287213 0.23615082 0.0024250431 332 72
0.052044421 -0.096592173 0.23660247 0.0023978513 327 71
0.053281661 -0.096725702 0.23662777 0.0024840995 309 67
0.054347824 -0.096549578 0.23589116 0.0024440051 315 69
0.055317145 -0.096212409 0.23475859 0.0025558772 314 68
0.056458984 -0.09618298 0.23437458 0.0025438094 301 65
0.057501409 -0.095988788 0.23358686 0.0026469694 299 65
0.058874477 -0.096343301 0.23413171 0.0025154762 299 65
0.059998643 -0.096284695 0.23367 0.0025393693 316 69
0.061109576 -0.096207462 0.23316287 0.0024440773 306 67
0.062220711 -0.096133433 0.23266406 0.0023538573 331 72
0.063464865 -0.096263856 0.23266095 0.0025554013 319 69
0.06467963 -0.096345834 0.23254205 0.0024672563 353 77
0.065706618 -0.096150145 0.23175645 0.002601414 326 71
0.066744365 -0.095976695 0.23102981 0.0023610541 324 71
0.0680824 -0.096233606 0.23134409 0.0027611686 299 65
0.069635473 -0.096780792 0.2323602 0.0027683997 276 60
0.070465468 -0.096321553 0.23096754 0.0026686133 300 65
0.071724378 -0.09645398 0.23100358 0.0025043488 307 67
0.072916381 -0.096493639 0.23082727 0.0026750222 281 61
0.074050665 -0.096456885 0.23047978 0.0027258939 263 57
0.075038709 -0.096233726 0.2297004 0.0027621589 283 62
0.075965077 -0.09593945 0.22876672 0.0025340188 291 63
0.077274866 -0.096130989 0.2290071 0.0027356446 262 57
0.078296401 -0.095963567 0.22840875 0.0028002132 260 57
0.078957692 -0.095365904 0.22680557 0.0028032253 254 55
0.080206551 -0.09548489 0.22692633 0.0028838119 250 54
0.082016394 -0.096258909 0.22862214 0.0032002586 231 50
0.083133854 -0.096210055 0.22838318 0.0033319928 228 49
0.083617203 -0.095438786 0.22645186 0.0029872335 237 51
0.084182143 -0.094780296 0.22481161 0.0031741408 235 51
0.085161425 -0.094599709 0.22432815 0.0029549955 240 52
0.086624175 -0.094953828 0.22513576 0.0035130254 211 46
0.087513156 -0.094677985 0.2244733 0.0033441989 207 45
0.088546313 -0.094563223 0.22421657 0.0032824608 205 44
0.089618109 -0.0944921 0.22408737 0.0035726319 203 44
0.09053006 -0.094256334 0.2235917 0.0031846201 215 47
0.091946431 -0.094545089 0.22436464 0.00382735 174 38
0.092757568 -0.09421207 0.22368616 0.0040833689 172 37
0.093304552 -0.093622036 0.22242019 0.0041064438 161 35
0.093761921 -0.092957258 0.22099842 0.0043056803 167 36
0.09427496 -0.092362687 0.21976468 0.0043402528 155 33
0.095435031 -0.092408538 0.22007647 0.0042386246 146 32
0.096994177 -0.09283527 0.22131909 0.0042105662 148 32
0.096526861 -0.091334827 0.21798666 0.0043374435 145 31
0.09714447 -0.090883195 0.21717361 0.0042920676 144 31
0.098075785 -0.090731844 0.21709731 0.0046753576 146 32
0.099330023 -0.090879299 0.21775645 0.0044604149 141 30
0.099715024 -0.090236902 0.21654139 0.0049005989 143 31
0.10014129 -0.089645311 0.2154631 0.0057834401 119 26
0.10100017 -0.089449488 0.21535181 0.0056845336 118 25
0.10179377 -0.089200586 0.2151293 0.0057705096 118 25
0.10267168 -0.08902999 0.21511155 0.0059782737 114 24
0.10284574 -0.088258907 0.2136558 0.0059823212 105 23
0.10387981 -0.088234089 0.21401937 0.0063461452 94 20
0.10327051 -0.086828046 0.21104139 0.005642043 104 22
nan nan nan 0 102 22
nan nan nan 0 97 21
nan nan nan 0 92 20
nan nan nan 0 89 19
nan nan nan 0 91 19
nan nan nan 0 85 18
nan nan nan 0 95 20
nan nan nan 0 102 22
-0.11498179 -0.081092104 0.20103769 0.0058409302 108 23
-0.11393765 -0.08105278 0.20205373 0.0054749018 112 24
nan nan nan 0 111 24
-0.10975563 -0.079456322 0.19954143 0.0048707067 125 27
-0.10869309 -0.079387933 0.19969614 0.0052508917 116 25
-0.10776404 -0.079416707 0.19985759 0.0048491857 127 27
-0.10747127 -0.079919159 0.20102172 0.0052552731 117 25
-0.10777072 -0.080875203 0.20318344 0.0051776455 114 24
-0.10739524 -0.081337772 0.20400314 0.0063472679 113 24
